1.10021 0.2468 0.100812 60
0.960197 0.2151 -0.153957 63
1.11943 0.2507 0.143049 66
0.974634 0.218 -0.120729 56
1.14474 0.2562 0.187998 55
0.993769 0.2221 -0.0871923 52
1.17215 0.2619 0.235851 65
1.0235 0.2284 -0.0530351 63
1.17117 0.2613 0.279349 49
1.03643 0.2311 -0.0165102 63
1.05816 0.2342 0.0209316 47
1.06079 0.2344 0.0589367 53
1.09711 0.2421 0.100406 60
0.960897 0.2119 -0.153956 63
1.12413 0.2478 0.143558 64
0.975334 0.2148 -0.120728 58
1.14174 0.2513 0.187392 57
0.986768 0.2169 -0.0865057 57
1.16915 0.2572 0.235045 65
1.0203 0.2241 -0.0527413 63
1.17766 0.2586 0.280761 51
1.03133 0.2262 -0.01642 57
1.05706 0.2301 0.0209294 50
1.06749 0.232 0.0593495 61
1.09011 0.2367 0.099693 60
0.944292 0.2048 -0.151187 73
1.12693 0.2443 0.143764 67
0.980035 0.2122 -0.121219 56
1.14844 0.2486 0.188405 60
0.997169 0.2157 -0.0872857 54
1.15856 0.2506 0.232725 66
1.025 0.2214 -0.0530322 63
1.19765 0.2586 0.2853 60
1.03603 0.2234 -0.016511 55
1.05396 0.2256 0.0208235 48
1.06439 0.2274 0.0590436 61
1.10261 0.2354 0.100817 65
0.950794 0.2027 -0.152075 69
1.10833 0.2362 0.141328 63
0.976834 0.2079 -0.120725 60
1.14544 0.2437 0.187699 61
0.995969 0.2119 -0.087188 52
1.17095 0.249 0.235049 63
1.018 0.2162 -0.0525457 63
1.17946 0.2504 0.280765 68
1.04273 0.2211 -0.0165981 66
1.05466 0.2219 0.0208248 51
1.05339 0.2214 0.0584225 61
1.10151 0.2312 0.100615 63
0.966999 0.2027 -0.154544 67
1.11693 0.234 0.142245 67
0.965931 0.2021 -0.119246 61
1.13844 0.2383 0.186486 60
0.996769 0.2084 -0.0871865 57
1.16795 0.2441 0.234243 68
1.0187 0.2126 -0.0525443 66
1.17267 0.2447 0.278952 69
1.04933 0.2188 -0.0166855 81
1.05546 0.2184 0.0208264 50
1.06199 0.2194 0.058839 66
1.10041 0.2269 0.100413 65
0.963797 0.1986 -0.15395 70
1.11773 0.2303 0.142246 70
0.968531 0.1993 -0.119541 66
1.13734 0.234 0.186184 66
0.993568 0.2041 -0.0867926 57
1.16875 0.2402 0.234244 70
1.0194 0.2092 -0.052543 66
1.17736 0.2416 0.279861 66
1.03243 0.2115 -0.0164179 74
1.05616 0.2147 0.0208277 51
1.07839 0.2188 0.0597705 71
1.09331 0.2217 0.0996992 68
0.954794 0.1933 -0.152367 72
1.12233 0.2272 0.142755 73
0.977033 0.1975 -0.120524 61
1.13814 0.23 0.186185 66
0.986367 0.1992 -0.0861065 52
1.16575 0.2354 0.233539 72
1.028 0.2073 -0.0530265 63
1.18196 0.2382 0.28077 60
1.03903 0.2091 -0.0165052 82
1.05106 0.2098 0.0207179 52
1.06549 0.2123 0.0589457 66
1.09411 0.2179 0.0997007 65
0.957395 0.1904 -0.152762 73
1.11923 0.2225 0.142249 70
0.983535 0.1952 -0.121212 68
1.14674 0.2275 0.187402 67
0.996869 0.1977 -0.0869863 58
1.15316 0.2286 0.230814 73
1.0169 0.2013 -0.0523478 66
1.18666 0.2348 0.281679 55
1.04763 0.207 -0.0165887 81
1.05376 0.2066 0.0207231 57
1.06229 0.2079 0.0587396 66
1.10261 0.2156 0.100417 65
0.961896 0.1878 -0.153354 70
1.11423 0.2174 0.141539 76
0.982234 0.1914 -0.120914 69
1.14944 0.2239 0.187707 72
1.00537 0.1958 -0.08767 63
1.16356 0.2265 0.232734 77
1.0176 0.1978 -0.0523464 66
1.19126 0.2314 0.282588 63
1.05033 0.2038 -0.0166835 84
1.05446 0.2029 0.0207245 57
1.06099 0.2038 0.0586371 67
1.10731 0.2125 0.100826 68
0.950893 0.1822 -0.151475 76
1.11303 0.2132 0.141337 73
0.96733 0.185 -0.119043 75
1.15024 0.2199 0.187709 72
1.00607 0.1922 -0.0876686 63
1.16815 0.2231 0.233543 75
1.0222 0.195 -0.0525376 68
1.17677 0.2244 0.27896 63
1.04903 0.1997 -0.016586 81
1.05906 0.1999 0.0208333 60
1.06169 0.2002 0.0586384 68
1.10021 0.2071 0.100112 67
0.968998 0.1822 -0.15424 71
1.11963 0.2104 0.14205 76
0.971831 0.1824 -0.119534 78
1.13545 0.2132 0.18518 72
0.998869 0.1873 -0.0869825 60
1.17285 0.2198 0.234252 75
1.0249 0.1918 -0.0526324 77
1.17757 0.2203 0.278961 69
1.04383 0.1951 -0.016496 90
1.05186 0.195 0.0207195 57
1.06039 0.1962 0.0585359 70
1.09111 0.2015 0.099195 72
0.955994 0.1764 -0.152065 69
1.12413 0.2074 0.142558 76
0.972431 0.1791 -0.119533 78
1.14784 0.2113 0.187104 73
0.995568 0.1831 -0.0866888 69
1.17735 0.2166 0.235061 77
1.0255 0.1884 -0.0526313 77
1.18017 0.2167 0.279366 78
1.04443 0.1915 -0.0164949 88
1.04866 0.1906 0.0206133 60
1.07489 0.195 0.0593637 74
1.09181 0.1979 0.0991963 77
0.956594 0.1731 -0.152064 73
1.11313 0.2013 0.141037 78
0.976932 0.1764 -0.120025 78
1.14854 0.2073 0.187105 73
0.996268 0.1796 -0.0866875 69
1.15496 0.2083 0.230418 81
1.0262 0.1848 -0.0526299 77
1.18097 0.2126 0.279368 78
1.04903 0.1886 -0.016586 90
1.04926 0.1869 0.0206145 61
1.06959 0.1902 0.0589536 71
1.09841 0.1949 0.099709 75
0.961195 0.1703 -0.152755 73
1.10603 0.1961 0.140124 76
0.981533 0.1737 -0.120516 69
1.14344 0.2023 0.186196 78
1.00467 0.1775 -0.0872713 69
1.16925 0.2065 0.233145 82
1.0072 0.1776 -0.0516664 75
1.18167 0.2082 0.279369 78
1.05953 0.1866 -0.0167659 89
1.04996 0.1831 0.0206158 61
1.06049 0.1847 0.0584361 68
1.10491 0.1921 0.100221 77
0.965596 0.1676 -0.153346 70
1.10873 0.1924 0.140329 73
0.974331 0.1688 -0.11953 75
1.14215 0.198 0.185893 81
1.01517 0.1757 -0.0881512 66
1.16995 0.2024 0.233147 86
1.0156 0.1754 -0.0520503 71
1.17277 0.2025 0.277152 87
1.05823 0.1826 -0.0166684 86
1.05846 0.1809 0.0207321 60
1.05519 0.18 0.0581259 71
1.08991 0.1856 0.0987927 82
0.968097 0.1647 -0.153642 74
1.11913 0.1903 0.141549 81
0.974831 0.1655 -0.119529 75
1.14285 0.194 0.185894 96
1.00597 0.1705 -0.0872688 63
1.17065 0.1985 0.233148 88
1.0241 0.1734 -0.052434 71
1.17727 0.1992 0.278061 87
1.04313 0.1762 -0.0164974 96
1.05516 0.1766 0.0207258 61
1.06369 0.1778 0.0585422 78
1.09051 0.1819 0.0987938 80
0.968697 0.1614 -0.153641 74
1.11983 0.1864 0.14155 75
0.97153 0.1615 -0.119035 78
1.15324 0.1918 0.187414 88
1.00257 0.1665 -0.0869754 75
1.17135 0.1944 0.233149 94
1.0326 0.1711 -0.0528176 71
1.18187 0.1957 0.27897 87
1.04963 0.1738 -0.0165849 93
1.04586 0.1715 0.0205079 66
1.07219 0.1754 0.0589586 75
1.09511 0.1788 0.0992026 82
0.951691 0.1553 -0.150873 79
1.11653 0.1821 0.141044 81
0.983833 0.1602 -0.120511 69
1.14994 0.1871 0.186808 75
1.00707 0.1636 -0.0872667 75
1.16036 0.1886 0.230828 90
1.0154 0.1648 -0.0519507 70
1.18057 0.1915 0.278467 97
1.05023 0.1701 -0.0165837 93
1.05636 0.1692 0.0207281 78
1.06489 0.1702 0.0585445 71
1.09571 0.1749 0.0992038 85
0.965896 0.154 -0.153046 81
1.10543 0.1761 0.139623 78
0.976531 0.1553 -0.119525 75
1.15064 0.1829 0.186809 75
1.00957 0.1604 -0.0874619 72
1.16876 0.1856 0.232344 94
1.014 0.1608 -0.0518534 75
1.17937 0.1869 0.278065 93
1.05673 0.1672 -0.0166712 91
1.05886 0.1658 0.0207329 85
1.05369 0.1646 0.057923 75
1.10421 0.1723 0.0999201 90
0.962494 0.15 -0.152352 87
1.10993 0.1729 0.140131 81
0.97113 0.151 -0.118836 86
1.14355 0.1777 0.185496 79
1.02197 0.1587 -0.0885381 78
1.16936 0.1815 0.232345 94
1.0185 0.1578 -0.0520447 77
1.17417 0.1819 0.276655 95
1.05133 0.1626 -0.0165816 93
1.06936 0.1636 0.0209531 82
1.06209 0.1623 0.0583392 78
1.09291 0.1667 0.0987984 85
0.970897 0.1478 -0.153636 77
1.11833 0.1702 0.141047 81
0.969729 0.1473 -0.118538 80
1.13625 0.1727 0.184282 86
1.01857 0.1546 -0.0881446 84
1.17585 0.1783 0.233558 97
1.023 0.1549 -0.0522361 77
1.17487 0.1778 0.276656 100
1.05193 0.1591 -0.0165805 100
1.05806 0.1583 0.0207314 82
1.06659 0.1592 0.0585478 85
1.08961 0.1623 0.0984921 92
0.969396 0.1443 -0.153339 88
1.12673 0.1676 0.142063 82
0.982032 0.1459 -0.120015 85
1.13885 0.169 0.184587 87
0.991467 0.1469 -0.0857967 75
1.17445 0.1741 0.233155 90
1.0295 0.1524 -0.0525236 84
1.18697 0.1756 0.279379 100
1.02873 0.1519 -0.016225 96
1.05856 0.1546 0.0207323 80
1.07109 0.1561 0.0587564 85
1.08811 0.1584 0.0982892 97
0.944488 0.1372 -0.149287 98
1.11953 0.1626 0.14105 82
0.988434 0.1433 -0.120703 84
1.14725 0.1662 0.185903 82
0.993967 0.1439 -0.0859919 73
1.15956 0.1678 0.230027 94
1.0221 0.1476 -0.0521378 85
1.18567 0.1711 0.278977 100
1.02923 0.1483 -0.016224 99
1.05906 0.1509 0.0207333 80
1.07159 0.1523 0.0587574 93
1.09261 0.1551 0.0986978 100
0.944988 0.1339 -0.149286 100
1.10823 0.157 0.139628 85
0.986933 0.1395 -0.120505 82
1.16144 0.1641 0.18803 100
0.996467 0.1407 -0.0860871 70
1.16786 0.1648 0.231643 94
1.0147 0.143 -0.051752 84
1.18237 0.1665 0.27807 100
1.03763 0.1458 -0.0163079 96
1.05366 0.1464 0.0206229 87
1.06229 0.1472 0.0582396 89
1.10701 0.1532 0.0999255 100
0.953191 0.1317 -0.15057 100
1.11073 0.1534 0.139833 91
0.979531 0.135 -0.11952 89
1.15034 0.1584 0.186209 99
1.01267 0.1394 -0.087456 81
1.17046 0.161 0.231948 97
1.0191 0.14 -0.0519436 84
1.16947 0.1605 0.274846 100
1.03423 0.1417 -0.0162144 99
1.06606 0.1443 0.0208467 85
1.06669 0.1441 0.058448 97
1.09571 0.1478 0.0988038 100
0.961493 0.1295 -0.151754 99
1.12313 0.1511 0.141357 99
0.978031 0.1313 -0.119223 94
1.13915 0.1528 0.184287 100
1.00137 0.1343 -0.0864777 82
1.17486 0.1574 0.232756 100
1.0216 0.1367 -0.0520388 80
1.18157 0.1579 0.277569 100
1.03273 0.1378 -0.0162173 100
1.05866 0.1396 0.0206325 87
1.07319 0.1413 0.0587605 100
1.09221 0.1434 0.0984971 100
0.950189 0.1246 -0.149876 100
1.12563 0.1474 0.141561 100
0.984432 0.1287 -0.12001 100
1.14745 0.1501 0.185503 100
0.997867 0.1303 -0.0860844 85
1.16766 0.1523 0.231242 100
1.028 0.1339 -0.0523265 92
1.18217 0.1538 0.27757 100
1.03123 0.1341 -0.0162202 100
1.05116 0.135 0.0205181 92
1.07559 0.1378 0.0588651 100
1.09271 0.1396 0.098498 100
0.950589 0.1214 -0.149875 100
1.11033 0.1417 0.139632 100
0.988733 0.1259 -0.120502 82
1.15184 0.1466 0.186212 100
0.998267 0.1268 -0.0860836 85
1.16036 0.1475 0.229628 100
1.0304 0.1307 -0.0524219 94
1.19037 0.1509 0.279386 100
1.03563 0.131 -0.0162118 99
1.05366 0.1316 0.0205229 97
1.07009 0.1333 0.0585545 100
1.09711 0.1365 0.0988065 100
0.95299 0.1183 -0.150271 100
1.11083 0.1378 0.139633 100
0.985232 0.122 -0.120009 99
1.15824 0.1433 0.187124 100
1.00067 0.1237 -0.086279 93
1.16086 0.1434 0.229629 100
1.0249 0.1264 -0.0521324 89
1.18707 0.1462 0.27848 100
1.04403 0.1284 -0.0163956 93
1.05606 0.1282 0.0206275 92
1.05869 0.1281 0.0579326 100
1.10351 0.1334 0.0994188 100
0.959292 0.1157 -0.151159 100
1.11323 0.1342 0.139838 100
0.969928 0.1167 -0.118038 100
1.15095 0.1383 0.18591 100
1.00507 0.1207 -0.0866706 90
1.16916 0.1403 0.231245 100
1.0194 0.1221 -0.051843 100
1.17397 0.1405 0.275354 100
1.03253 0.1233 -0.0162177 99
1.06046 0.125 0.020636 90
1.06109 0.1249 0.0580373 100
1.10201 0.1293 0.0992159 100
0.957691 0.1121 -0.150862 100
1.10384 0.1291 0.138619 100
0.974229 0.1137 -0.11853 100
1.14545 0.1338 0.184899 100
1.00157 0.1167 -0.0862773 90
1.17356 0.1367 0.231954 100
1.0238 0.119 -0.0520345 100
1.18217 0.1373 0.27717 100
1.02103 0.1185 -0.0159398 96
1.05886 0.1212 0.0206329 95
1.05959 0.1209 0.0579344 100
1.08861 0.1239 0.0979902 100
0.956091 0.1087 -0.150565 100
1.12203 0.1275 0.140854 100
0.982531 0.1114 -0.119514 100
1.14005 0.1291 0.183989 100
0.997967 0.1128 -0.0859842 87
1.17396 0.1328 0.231954 100
1.0282 0.116 -0.0522261 100
1.18847 0.134 0.278482 100
1.03333 0.1163 -0.0162162 100
1.05136 0.1166 0.0205185 97
1.06589 0.1179 0.0582465 100
1.09491 0.1209 0.0985023 100
0.944687 0.1041 -0.148687 100
1.11853 0.1231 0.140348 100
0.982931 0.108 -0.119513 100
1.15035 0.1262 0.185509 100
1.00227 0.1099 -0.086276 97
1.16466 0.1276 0.230036 100
1.0246 0.112 -0.052033 100
1.18507 0.1294 0.277576 100
1.04173 0.1135 -0.0163 100
1.06366 0.1142 0.0207421 100
1.06829 0.1144 0.0583511 100
1.09341 0.1169 0.0982994 100
0.952989 0.1016 -0.149871 100
1.10904 0.1182 0.139129 100
0.983231 0.1045 -0.119513 100
1.14685 0.1218 0.184902 100
1.01057 0.1073 -0.08696 100
1.17286 0.1244 0.231652 100
1.017 0.1076 -0.0516476 100
1.17777 0.1245 0.275762 100
1.04413 0.1101 -0.0162954 100
1.06406 0.1105 0.0207429 100
1.05679 0.1094 0.057729 100
1.10171 0.1139 0.0990153 100
0.957191 0.0987 -0.150563 100
1.11933 0.1153 0.140349 100
0.975729 0.1003 -0.118527 100
1.15514 0.1186 0.186218 100
1.01297 0.1038 -0.0871554 100
1.17336 0.1203 0.231653 100
1.0194 0.1043 -0.051743 100
1.17627 0.1202 0.275359 96
1.04643 0.1067 -0.016391 100
1.07436 0.1078 0.0208627 100
1.06109 0.1061 0.0579373 100
1.10011 0.1096 0.0988122 100
0.965393 0.096 -0.151747 100
1.11973 0.1114 0.14035 100
0.976029 0.0969 -0.118526 100
1.14175 0.1132 0.183992 100
1.01337 0.1002 -0.0871546 100
1.17376 0.116 0.231654 100
1.0277 0.1013 -0.052127 100
1.17477 0.1156 0.274856 100
1.03883 0.1022 -0.0162056 100
1.06086 0.1025 0.0206367 100
1.05949 0.1022 0.0578342 100
1.08072 0.1039 0.097075 100
0.95589 0.0917 -0.150265 100
1.12613 0.1079 0.141062 100
0.98033 0.0937 -0.119018 100
1.14805 0.1098 0.184904 100
1.00177 0.0956 -0.0860769 100
1.17416 0.1119 0.231655 100
1.032 0.0981 -0.0523188 100
1.17707 0.1117 0.27536 100
1.03523 0.0982 -0.0162125 100
1.05326 0.0983 0.0205222 100
1.06579 0.0991 0.0581463 100
1.09691 0.1016 0.0985061 100
0.952289 0.0881 -0.149572 100
1.11653 0.1032 0.139844 100
0.98063 0.0904 -0.119018 100
1.15624 0.1065 0.18622 100
1.00607 0.0924 -0.0864686 100
1.16276 0.1069 0.229333 100
1.0244 0.0939 -0.0519334 100
1.18327 0.1084 0.276672 100
1.04353 0.0953 -0.0162966 100
1.06156 0.0953 0.0206381 100
1.06419 0.0952 0.0580432 100
1.10121 0.0983 0.0988144 100
0.960491 0.0855 -0.150856 100
1.11293 0.099 0.139337 100
0.984931 0.0874 -0.119509 100
1.16454 0.1031 0.187436 100
1.01827 0.0901 -0.0874452 100
1.16706 0.1032 0.230041 100
1.0128 0.0893 -0.0513557 100
1.18747 0.1046 0.27758 100
1.05783 0.0929 -0.0164691 100
1.06986 0.0923 0.020754 100
1.05849 0.0909 0.0577323 100
1.09761 0.0941 0.0985074 100
0.95679 0.0818 -0.150263 100
1.11134 0.0949 0.139134 100
0.973328 0.0829 -0.118032 100
1.15694 0.0984 0.186222 100
1.02057 0.0868 -0.0876408 100
1.17526 0.0998 0.231657 100
1.021 0.0864 -0.0517399 100
1.18007 0.0998 0.275766 100
1.04613 0.0882 -0.0162916 100
1.07016 0.0885 0.0207546 100
1.05889 0.0872 0.057733 100
1.10191 0.0906 0.0988157 100
0.962992 0.079 -0.151151 100
1.11363 0.0912 0.139338 100
0.973628 0.0795 -0.118031 100
1.14555 0.0934 0.1843 100
1.00297 0.0817 -0.0860746 100
1.17946 0.096 0.232365 100
1.0273 0.0834 -0.0520278 100
1.18437 0.096 0.276674 100
1.03853 0.0839 -0.0162062 100
1.06646 0.0845 0.0207475 100
1.06509 0.084 0.0580449 100
1.09031 0.0858 0.0977934 100
0.965293 0.0758 -0.151447 100
1.12583 0.0882 0.140862 100
0.98183 0.0767 -0.119015 100
1.14975 0.0897 0.184908 100
1.00927 0.0787 -0.0866625 100
1.17196 0.0912 0.23085 100
1.0296 0.0799 -0.0521234 100
1.18857 0.0921 0.277582 100
1.04273 0.0806 -0.0162981 100
0.937697 0.2984 -0.154 31
0.954802 0.2966 -0.156467 46
0.959535 0.2977 -0.121458 52
0.9502 0.2915 -0.155576 43
0.970137 0.2973 -0.122738 40
0.941797 0.2853 -0.153992 48
0.974938 0.295 -0.123128 53
0.9522 0.2849 -0.155572 47
0.977839 0.2922 -0.123423 55
0.992872 0.2965 -0.088694 54
0.941797 0.2782 -0.153692 50
0.969336 0.286 -0.122239 56
0.995772 0.2936 -0.0888884 58
1.0155 0.299 -0.0535505 57
0.950299 0.2774 -0.154876 45
0.962635 0.2807 -0.121252 58
0.996772 0.2903 -0.0888865 58
1.02031 0.297 -0.0537413 57
0.9532 0.2745 -0.15527 46
0.963535 0.2773 -0.12125 58
1.00167 0.2879 -0.0892771 63
1.0137 0.291 -0.0533539 59
1.03413 0.2967 -0.0168146 52
1.04226 0.2971 0.020901 53
0.950299 0.2701 -0.154576 50
0.968436 0.2749 -0.121741 58
0.996872 0.2828 -0.0886863 66
1.02241 0.2897 -0.0537372 59
1.04093 0.2947 -0.0169016 55
1.03746 0.292 0.0207918 60
0.939795 0.2637 -0.152796 55
0.971236 0.2722 -0.121936 61
0.993972 0.2782 -0.0883919 66
1.0195 0.2852 -0.0535428 57
1.04583 0.2922 -0.0169922 57
1.04046 0.2889 0.0207976 55
1.05649 0.2932 0.0595284 81
0.942596 0.261 -0.153091 54
0.964534 0.2667 -0.120948 63
0.996872 0.2755 -0.0885863 54
1.0128 0.2795 -0.0531557 57
1.04483 0.2882 -0.0168941 60
1.05296 0.2887 0.0211216 55
1.05169 0.2879 0.0592192 66
1.09721 0.3 0.101607 53
0.937794 0.2563 -0.1521 58
0.963434 0.263 -0.120751 65
0.997772 0.272 -0.0885846 55
1.0137 0.2762 -0.0531539 57
1.03233 0.2809 -0.0167181 63
1.05006 0.2839 0.021016 63
1.05459 0.2848 0.0593248 57
1.09051 0.2943 0.100894 48
0.9577 0.2582 -0.155262 52
0.966334 0.2601 -0.120945 69
0.996772 0.2682 -0.0883865 57
1.0147 0.2726 -0.053152 57
1.03523 0.2778 -0.0167125 65
1.04336 0.2782 0.0208031 68
1.06139 0.2826 0.0596378 49
1.08571 0.2889 0.100385 47
0.954799 0.2538 -0.154567 53
1.11443 0.2962 0.14374 52
0.974936 0.2588 -0.121928 79
1.12234 0.2979 0.186155 64
0.982269 0.2606 -0.0870143 54
1.0214 0.2706 -0.0534391 61
1.03233 0.2731 -0.0166181 68
1.05006 0.2761 0.021016 80
1.06629 0.28 0.0598472 53
1.09441 0.2872 0.101101 46
0.951897 0.2495 -0.153973 57
1.11543 0.2923 0.143742 58
0.968134 0.2534 -0.120942 79
1.14244 0.299 0.189294 73
0.992871 0.2597 -0.087894 52
1.02811 0.2686 -0.0537263 54
1.04103 0.2715 -0.0168014 78
1.05496 0.2734 0.0210254 76
1.06339 0.2752 0.0596417 52
1.08961 0.2819 0.100592 48
0.948896 0.2452 -0.153379 57
1.10493 0.2854 0.142222 60
0.976636 0.252 -0.121925 82
1.14154 0.2945 0.188992 78
0.98987 0.2552 -0.0874998 49
1.16305 0.2998 0.235833 63
1.0155 0.2615 -0.0530505 61
1.04193 0.2679 -0.0167997 81
1.05586 0.2697 0.0210271 75
1.05269 0.2687 0.0589211 50
1.10221 0.281 0.101616 51
0.951697 0.2423 -0.153673 55
1.11933 0.285 0.144049 63
0.958331 0.2437 -0.11956 75
1.14254 0.2907 0.188994 78
1.00237 0.2547 -0.0885758 46
1.16785 0.2967 0.236543 63
1.0184 0.2584 -0.0531449 57
1.17246 0.2975 0.281651 27
1.05063 0.2664 -0.016883 89
1.06456 0.2682 0.0212438 72
1.05749 0.266 0.0592303 50
1.09541 0.2752 0.100903 51
0.958198 0.2406 -0.154561 57
1.11643 0.2803 0.143544 63
0.966833 0.2424 -0.120544 63
1.12634 0.2824 0.186163 82
1.01677 0.2546 -0.0897481 57
1.17075 0.2933 0.236948 59
1.0231 0.256 -0.0533359 57
1.17346 0.2936 0.281653 36
1.04573 0.2613 -0.0167924 94
1.06156 0.2635 0.0211381 76
1.05839 0.2623 0.0592321 50
1.08861 0.2697 0.10019 51
0.957098 0.2368 -0.154263 61
1.11933 0.2769 0.143749 60
0.975335 0.241 -0.121428 61
1.14264 0.2822 0.188694 90
0.980868 0.242 -0.086517 49
1.16795 0.2883 0.236143 59
1.0201 0.2515 -0.0531416 61
1.17636 0.29 0.282059 39
1.04663 0.2576 -0.0167906 91
1.05086 0.257 0.0209175 71
1.06319 0.2596 0.0594413 50
1.08961 0.2657 0.100192 50
0.950296 0.2314 -0.153076 64
1.11643 0.272 0.143244 66
0.976235 0.2376 -0.121426 55
1.15704 0.2815 0.190922 87
0.989469 0.2404 -0.0872005 49
1.17095 0.2845 0.236548 65
1.021 0.2477 -0.0531399 61
1.17746 0.2856 0.282061 40
1.03783 0.2516 -0.0166075 89
1.05956 0.255 0.0210342 72
1.06019 0.2549 0.0592355 50
1.10021 0.2642 0.101112 56
0.951096 0.2281 -0.153074 60
1.11553 0.2675 0.143042 70
0.977035 0.234 -0.121424 55
1.15224 0.2761 0.189912 82
0.998071 0.2388 -0.087884 48
1.16425 0.2786 0.235036 63
1.0102 0.2414 -0.0524606 57
1.17466 0.2806 0.281156 41
1.04643 0.2499 -0.016791 89
1.05846 0.251 0.0210321 67
1.05909 0.2508 0.0590334 56
1.10111 0.2603 0.101114 55
0.959598 0.2268 -0.154258 61
1.10483 0.261 0.141521 66
0.968133 0.2285 -0.120242 56
1.15324 0.2721 0.189914 78
0.99697 0.2349 -0.0876861 52
1.17285 0.2765 0.236552 63
1.0169 0.2394 -0.0527478 61
1.17366 0.2763 0.280754 42
1.03953 0.2444 -0.0166043 78
1.06706 0.2491 0.0211486 58
1.05999 0.2471 0.0590351 56
1.09421 0.2549 0.100401 56
0.952696 0.2216 -0.153071 60
1.12113 0.2608 0.143553 67
0.972834 0.226 -0.120733 58
1.14074 0.2649 0.18769 70
0.999671 0.2319 -0.0878809 52
1.17385 0.2724 0.236554 65
1.0255 0.2377 -0.0532313 64
1.17466 0.2722 0.280756 43
1.04033 0.2408 -0.0166027 76
1.06606 0.2449 0.0211467 51
1.06469 0.2443 0.0593442 56
1.09511 0.2509 0.100403 60
0.951495 0.2177 -0.152774 63
1.11433 0.2551 0.14254 66
0.973634 0.2226 -0.120731 58
1.14164 0.2609 0.187692 64
0.986868 0.2253 -0.0867055 54
1.16715 0.2663 0.235041 65
1.0302 0.2348 -0.0534222 61
1.16997 0.2666 0.279347 45
1.02753 0.234 -0.0164273 77
1.05716 0.2388 0.0209296 47
1.06359 0.2401 0.0592421 52
1.09211 0.2462 0.100097 57
0.954196 0.2148 -0.153068 72
1.11523 0.251 0.142541 66
0.982135 0.2207 -0.121715 56
1.14634 0.2578 0.188401 57
0.987668 0.2218 -0.086704 52
1.16425 0.2614 0.234236 63
1.0271 0.2303 -0.0532282 66
1.18416 0.2655 0.282574 48
1.03613 0.2322 -0.0165108 63
1.05596 0.2349 0.0209273 48
1.06639 0.2368 0.0593474 61
1.09881 0.2436 0.10061 61
0.951094 0.2108 -0.152374 64
1.10833 0.2456 0.141528 64
0.975134 0.2158 -0.120728 58
1.14724 0.2538 0.188403 55
0.99817 0.2205 -0.0874838 54
1.16505 0.2575 0.234237 63
1.0201 0.2252 -0.0527416 63
1.18506 0.2615 0.282576 54
1.03893 0.229 -0.0166054 60
1.06066 0.2321 0.0210364 48
1.05939 0.2316 0.058834 61
1.10351 0.2408 0.100919 61
0.953695 0.2079 -0.152769 69
1.11503 0.243 0.142241 66
0.968132 0.2107 -0.119742 64
1.15584 0.2517 0.189619 57
1.00087 0.2176 -0.0876786 57
1.16595 0.2535 0.234239 70
1.0209 0.2216 -0.0527401 66
1.17636 0.2553 0.280259 57
1.04943 0.2277 -0.0166853 60
1.06146 0.2285 0.0210379 48
1.05629 0.227 0.058628 56
1.10041 0.2362 0.100613 61
0.9699 0.208 -0.155238 61
1.12553 0.2413 0.143561 67
0.972733 0.2083 -0.120233 58
1.13934 0.2439 0.186788 60
1.00157 0.2141 -0.0876773 57
1.18215 0.2529 0.23737 68
1.0216 0.2182 -0.0527388 64
1.17916 0.2518 0.280764 69
1.03263 0.2202 -0.0164175 71
1.05836 0.224 0.0209319 50
1.06289 0.2248 0.0589407 63
1.09151 0.2305 0.0996957 67
0.955095 0.2014 -0.152767 69
1.11083 0.2341 0.141533 66
0.973433 0.2049 -0.120231 58
1.14594 0.2413 0.1877 64
0.992568 0.2088 -0.0867946 60
1.17155 0.2463 0.23505 66
1.0302 0.2163 -0.0532223 68
1.17616 0.2469 0.279859 69
1.04123 0.2185 -0.016601 71
1.05126 0.2189 0.0207183 51
1.07929 0.2243 0.0598722 77
1.09031 0.2262 0.0994934 63
0.951894 0.1974 -0.152073 73
1.11543 0.2313 0.142042 67
0.974133 0.2017 -0.12023 58
1.15064 0.2381 0.188409 64
0.991368 0.2049 -0.0866969 57
1.16086 0.2401 0.232729 72
1.0231 0.2113 -0.0527359 68
1.18466 0.2446 0.281675 64
1.04393 0.2152 -0.0165958 77
1.05006 0.2146 0.020716 52
1.06059 0.2164 0.0587363 66
1.10091 0.2244 0.100414 65
0.956495 0.1947 -0.152764 76
1.10653 0.2252 0.140825 72
0.972932 0.1977 -0.120032 68
1.15534 0.2347 0.189018 67
0.995969 0.2022 -0.086988 52
1.16166 0.2358 0.232731 72
1.0121 0.2052 -0.052157 70
1.18556 0.2402 0.281677 63
1.05053 0.2126 -0.0166832 81
1.05676 0.2121 0.0208289 51
1.05349 0.2111 0.0583227 63
1.10161 0.2206 0.100415 65
0.957195 0.1914 -0.152763 69
1.11513 0.2229 0.141841 70
0.96383 0.1924 -0.11885 78
1.15614 0.2307 0.18902 70
1.00447 0.2003 -0.0876717 57
1.16635 0.2325 0.23354 74
1.0167 0.2024 -0.0523482 66
1.17297 0.2334 0.278452 57
1.04743 0.2081 -0.0165891 81
1.05546 0.208 0.0208264 52
1.06009 0.2086 0.0586353 67
1.09851 0.216 0.100109 67
0.963697 0.1892 -0.15365 74
1.10813 0.2175 0.140828 70
0.970331 0.1902 -0.119537 75
1.14144 0.2236 0.186492 70
1.00907 0.1976 -0.0879629 66
1.16715 0.2284 0.233541 77
1.0253 0.2004 -0.0527317 68
1.18336 0.2312 0.280772 63
1.03633 0.2022 -0.0164104 85
1.06016 0.2051 0.0208354 55
1.06279 0.2053 0.0587405 66
1.09141 0.2106 0.0993955 67
0.956594 0.1843 -0.152364 78
1.12643 0.217 0.143063 75
0.978833 0.1883 -0.120521 69
1.14804 0.2207 0.187404 72
0.998069 0.1918 -0.086984 66
1.17175 0.2251 0.23425 78
1.026 0.1968 -0.0527303 70
1.18416 0.2271 0.280774 64
1.04093 0.1993 -0.0165016 82
1.05496 0.2003 0.0207254 57
1.07129 0.203 0.0592568 70
1.09611 0.2075 0.0997046 68
0.947491 0.1791 -0.150881 79
1.11933 0.2116 0.142049 75
0.979433 0.1848 -0.12052 73
1.15264 0.2175 0.188013 73
1.00457 0.1894 -0.0874715 63
1.15716 0.2181 0.231222 81
1.0168 0.1914 -0.052248 77
1.18876 0.2237 0.281683 68
1.05143 0.1975 -0.0166814 86
1.04776 0.1951 0.0206116 61
1.06809 0.1986 0.0589507 70
1.09871 0.2041 0.0999096 71
0.957794 0.1776 -0.152361 81
1.10843 0.2055 0.140528 76
0.974232 0.1803 -0.11973 73
1.15344 0.2134 0.188015 72
1.00327 0.1855 -0.087274 66
1.16176 0.2148 0.231931 78
1.0136 0.1871 -0.0520541 75
1.18186 0.2181 0.27987 74
1.06003 0.1953 -0.0167649 86
1.05236 0.1922 0.0207204 60
1.05309 0.192 0.0581219 71
1.10341 0.201 0.100219 75
0.964296 0.1754 -0.153349 67
1.11693 0.203 0.141545 78
0.972931 0.1766 -0.119532 78
1.14644 0.208 0.186801 73
1.01177 0.1835 -0.0879577 72
1.17215 0.2125 0.233851 84
1.0142 0.1836 -0.052053 77
1.17307 0.2122 0.277553 75
1.05283 0.1902 -0.0166787 91
1.05696 0.1892 0.0207293 60
1.05769 0.189 0.0583307 71
1.10011 0.1964 0.0999122 77
0.968797 0.1727 -0.15394 67
1.11373 0.1984 0.141038 79
0.975432 0.1735 -0.119728 73
1.13355 0.2016 0.184577 84
1.01437 0.1803 -0.0881527 69
1.18065 0.2097 0.235467 90
1.0188 0.1807 -0.0522441 77
1.17567 0.2085 0.278058 85
1.04563 0.1851 -0.0164926 90
1.05366 0.1849 0.0207229 61
1.05829 0.1855 0.0583319 71
1.08711 0.1902 0.0986873 75
0.967397 0.169 -0.153643 71
1.12613 0.1966 0.142562 79
0.978032 0.1706 -0.120023 75
1.14005 0.1988 0.185489 82
0.999268 0.174 -0.0867817 63
1.16975 0.2036 0.233146 86
1.0233 0.1778 -0.0524355 77
1.18027 0.2052 0.278966 91
1.05013 0.1823 -0.0165839 96
1.04836 0.1803 0.0206127 63
1.06869 0.1837 0.0588518 74
1.08571 0.1862 0.0984846 82
0.960194 0.1644 -0.152357 81
1.11893 0.1915 0.141548 76
0.986434 0.1687 -0.120906 73
1.15434 0.1974 0.187717 88
1.00567 0.1717 -0.0872694 72
1.16266 0.1984 0.231633 88
1.0239 0.1745 -0.0524343 75
1.18476 0.202 0.279875 93
1.05073 0.1788 -0.0165828 96
1.06276 0.1792 0.0208404 75
1.06149 0.1786 0.058438 74
1.09811 0.1846 0.0995084 85
0.964596 0.1619 -0.153048 81
1.10393 0.1852 0.13962 81
0.973231 0.163 -0.119232 84
1.15694 0.1937 0.188022 96
1.01417 0.1697 -0.0879531 72
1.16716 0.1952 0.232341 92
1.0127 0.1691 -0.0518559 75
1.17777 0.1965 0.278062 88
1.05733 0.1762 -0.0166701 89
1.05946 0.1748 0.0207341 76
1.05819 0.1742 0.0582317 74
1.10471 0.1817 0.100121 73
0.955393 0.1569 -0.151466 76
1.10843 0.182 0.140128 75
0.97183 0.1593 -0.119034 78
1.14784 0.188 0.186504 78
1.01277 0.1658 -0.0878558 75
1.16786 0.1911 0.232343 90
1.0172 0.1662 -0.0520472 75
1.17847 0.1924 0.278063 91
1.04603 0.1705 -0.0164918 93
1.06796 0.1724 0.0209504 80
1.05479 0.1699 0.0580252 72
1.09941 0.1769 0.0995109 90
0.969597 0.1558 -0.153639 74
1.12083 0.18 0.141552 78
0.978332 0.1568 -0.119722 84
1.14265 0.1831 0.185494 73
1.01337 0.1623 -0.0878546 75
1.17245 0.1877 0.233151 96
1.0217 0.1633 -0.0522386 80
1.18107 0.1886 0.278468 95
1.04863 0.1672 -0.0164868 96
1.06066 0.1674 0.0207364 80
1.06129 0.1672 0.0583376 75
1.09211 0.1718 0.0987969 87
0.966296 0.1518 -0.153045 87
1.12143 0.1761 0.141553 79
0.982733 0.154 -0.120214 74
1.13745 0.1782 0.184584 86
1.00997 0.1581 -0.0874612 75
1.16916 0.1829 0.232345 94
1.0262 0.1603 -0.0524299 77
1.18167 0.1845 0.278469 97
1.04523 0.1629 -0.0164933 96
1.05726 0.1631 0.0207298 82
1.06589 0.1641 0.0585465 78
1.09271 0.168 0.098798 90
0.955092 0.1466 -0.151167 87
1.11813 0.1715 0.141047 76
0.981332 0.1503 -0.120016 78
1.14974 0.176 0.186508 79
1.00857 0.1543 -0.0872638 78
1.16396 0.178 0.231235 97
1.0228 0.1561 -0.0522365 77
1.18237 0.1804 0.27847 100
1.05373 0.1605 -0.016577 99
1.05986 0.1597 0.0207348 85
1.06839 0.1606 0.0586513 89
1.10121 0.1654 0.0995144 90
0.963394 0.1444 -0.152351 87
1.11093 0.1665 0.140133 79
0.977931 0.1463 -0.119523 89
1.14844 0.1717 0.186205 81
1.01897 0.1523 -0.0881439 90
1.16656 0.1742 0.23164 96
1.0076 0.1502 -0.0514656 77
1.17527 0.1751 0.276657 100
1.04833 0.1559 -0.0164874 100
1.05646 0.1554 0.0206283 87
1.06299 0.156 0.0583409 93
1.10771 0.1624 0.100127 97
0.961894 0.1408 -0.152054 93
1.11543 0.1632 0.140542 82
0.97253 0.142 -0.118833 97
1.14904 0.1677 0.186206 96
1.00757 0.147 -0.0871658 79
1.16716 0.1701 0.231641 92
1.018 0.1481 -0.0519457 84
1.17777 0.1713 0.277162 100
1.03703 0.1505 -0.0163091 96
1.06486 0.1529 0.0208444 85
1.05959 0.1518 0.0581344 93
1.10041 0.1574 0.0994128 97
0.956592 0.1366 -0.151164 91
1.12183 0.1601 0.141354 88
0.976931 0.1392 -0.119225 91
1.14175 0.1625 0.184892 100
1.00417 0.1429 -0.0867723 79
1.17545 0.1672 0.233157 94
1.0264 0.1457 -0.0523295 89
1.18217 0.1677 0.27807 100
1.02563 0.1452 -0.016131 100
1.05746 0.1481 0.0206302 85
1.06999 0.1496 0.0586543 97
1.08511 0.1514 0.0979834 100
0.947189 0.1319 -0.149582 100
1.12633 0.1567 0.141863 91
0.985333 0.1369 -0.120209 84
1.14225 0.1588 0.184893 99
0.992867 0.1377 -0.085794 73
1.17026 0.1622 0.231947 100
1.0269 0.1421 -0.0523286 84
1.18277 0.1636 0.278071 100
1.03603 0.1432 -0.016311 100
1.05796 0.1446 0.0206312 87
1.07649 0.1467 0.0589668 93
1.09161 0.1484 0.0984959 100
0.943788 0.1282 -0.148988 100
1.12493 0.1527 0.14156 100
0.985733 0.1336 -0.120208 84
1.15454 0.1564 0.186817 100
0.997267 0.1348 -0.0860855 82
1.15526 0.1563 0.228918 100
1.0234 0.1382 -0.0521353 87
1.19106 0.1607 0.279887 100
1.03853 0.1399 -0.0163062 100
1.05056 0.1398 0.020517 90
1.06509 0.1414 0.0583449 93
1.09991 0.1458 0.0992119 100
0.95009 0.1257 -0.149876 94
1.10963 0.1467 0.139631 100
0.982232 0.1296 -0.119714 94
1.15514 0.1523 0.186818 100
1.00167 0.132 -0.0864771 82
1.16356 0.1532 0.230434 100
1.0239 0.1346 -0.0521343 92
1.18197 0.1553 0.27757 100
1.04693 0.1373 -0.0163901 100
1.05896 0.1372 0.0206331 90
1.06759 0.1379 0.0584497 100
1.09851 0.1417 0.0990092 100
0.958292 0.1234 -0.15116 100
1.11213 0.1431 0.139835 99
0.970929 0.1247 -0.118336 100
1.15174 0.1478 0.186212 100
1.00807 0.1293 -0.0869648 88
1.17186 0.1502 0.23195 100
1.0164 0.13 -0.0517487 92
1.17477 0.1501 0.275756 100
1.03943 0.1326 -0.0163045 100
1.05946 0.1335 0.0206341 92
1.05809 0.1329 0.0579315 100
1.09901 0.1379 0.0990101 100
0.964594 0.1208 -0.152048 100
1.11853 0.14 0.140548 100
0.97723 0.122 -0.119024 99
1.14045 0.1423 0.18429 100
1.00847 0.1258 -0.086964 88
1.17236 0.1461 0.231951 100
1.0268 0.1277 -0.0522288 98
1.17917 0.1465 0.276664 100
1.02803 0.1275 -0.0161263 96
1.05786 0.1295 0.020631 95
1.06249 0.1297 0.0581399 100
1.09551 0.1336 0.0987034 100
0.955291 0.1162 -0.150566 100
1.12293 0.1365 0.141056 100
0.97763 0.1186 -0.119023 100
1.15075 0.1395 0.18591 100
0.997067 0.1208 -0.0859859 88
1.17286 0.142 0.231952 100
1.0351 0.1251 -0.0526128 100
1.18547 0.1431 0.278076 100
1.03243 0.1244 -0.0162179 99
0.954602 0.2974 -0.156468 45
0.959403 0.2952 -0.157058 45
0.962236 0.2958 -0.121753 40
0.962304 0.2925 -0.157453 42
0.963235 0.2926 -0.121751 53
0.953801 0.2864 -0.155869 41
0.973638 0.2922 -0.122931 53
0.954701 0.2833 -0.155867 45
0.978539 0.29 -0.123422 53
0.991672 0.2937 -0.0885963 54
1.0113 0.2992 -0.0533585 59
0.963303 0.2822 -0.157051 46
0.968036 0.2832 -0.121942 55
0.998373 0.2919 -0.0890834 60
1.0085 0.2945 -0.0531639 57
0.962403 0.2782 -0.156753 47
0.963335 0.2782 -0.121251 58
0.997473 0.2879 -0.0888852 57
1.0134 0.2921 -0.0533545 61
1.03963 0.2993 -0.0169041 49
1.04586 0.2993 0.0210079 53
0.951999 0.2716 -0.154873 46
0.964335 0.2748 -0.121249 60
0.998473 0.2844 -0.0888832 66
1.0221 0.2907 -0.0537378 59
1.03303 0.2935 -0.0167167 55
1.03916 0.2935 0.0207951 55
0.950999 0.2678 -0.154574 50
0.969036 0.2725 -0.12174 58
0.98417 0.2766 -0.0875107 57
1.02311 0.2872 -0.0537359 56
1.04553 0.2933 -0.0169927 57
1.03816 0.2895 0.0207932 57
1.06389 0.2963 0.0599426 81
1.07671 0.2995 0.0998673 41
0.946197 0.263 -0.153684 55
0.975737 0.2709 -0.122427 61
0.992771 0.2753 -0.0881942 57
1.0202 0.2827 -0.0535414 57
1.04073 0.288 -0.016802 60
1.04116 0.2864 0.0207989 55
1.05719 0.2904 0.0595298 68
1.08921 0.299 0.100891 48
0.941395 0.2582 -0.152793 55
0.965134 0.2643 -0.120947 63
0.993671 0.272 -0.0881925 54
1.0135 0.277 -0.0531543 56
1.04753 0.286 -0.0169889 60
1.04786 0.2843 0.0210118 60
1.04859 0.2841 0.0589133 53
1.10181 0.2984 0.102016 53
0.946096 0.2559 -0.153384 53
0.962233 0.2599 -0.120553 63
1.00037 0.2701 -0.0886796 54
1.0183 0.2745 -0.0533451 54
1.04273 0.2808 -0.0167981 65
1.04696 0.2802 0.0209101 63
1.05339 0.2815 0.0592225 49
1.09701 0.293 0.101506 46
0.962201 0.2567 -0.155853 48
1.11793 0.2982 0.144247 52
0.970835 0.2586 -0.121436 73
1.11635 0.2973 0.185144 57
0.997472 0.2655 -0.0883852 52
1.0192 0.271 -0.0533434 59
1.03213 0.274 -0.0166185 65
1.06146 0.2801 0.0212379 78
1.06209 0.2799 0.0596392 53
1.09031 0.2871 0.100793 45
0.951697 0.2503 -0.153973 57
1.11323 0.2927 0.143537 57
0.965934 0.2537 -0.120746 78
1.13264 0.2975 0.187675 73
0.984869 0.2585 -0.0872094 49
1.0202 0.2674 -0.0533415 56
1.03503 0.2709 -0.0167129 70
1.05086 0.2733 0.0210175 78
1.06499 0.2767 0.0597447 48
1.09521 0.2843 0.101103 46
0.944895 0.245 -0.152786 58
1.11623 0.2894 0.143743 58
0.980337 0.2538 -0.122418 73
1.13554 0.294 0.18798 75
0.98967 0.2561 -0.0875001 49
1.0172 0.2629 -0.0531472 57
1.04563 0.2698 -0.0167926 81
1.05176 0.2697 0.0210193 76
1.06019 0.2715 0.0594355 50
1.09231 0.2795 0.100797 46
0.945695 0.2417 -0.152785 57
1.10753 0.283 0.142527 63
0.975435 0.2489 -0.121728 74
1.14424 0.292 0.189297 78
0.99057 0.2526 -0.0874984 48
1.15815 0.2953 0.234624 61
1.0182 0.2593 -0.0531453 56
1.17226 0.2985 0.281651 25
1.05233 0.2676 -0.0169797 86
1.05656 0.267 0.0210285 76
1.04949 0.265 0.058715 50
1.09331 0.2757 0.100799 47
0.956098 0.2408 -0.154265 55
1.11043 0.2796 0.142732 60
0.966633 0.2431 -0.120544 63
1.13184 0.2848 0.187073 81
0.999171 0.2511 -0.0881819 51
1.17435 0.2951 0.237755 59
1.0191 0.2558 -0.0531436 57
1.17326 0.2944 0.281653 34
1.04163 0.2612 -0.0167002 91
1.06136 0.2644 0.0211377 75
1.04849 0.2609 0.0586131 48
1.10001 0.2733 0.101312 51
0.9646 0.2395 -0.155548 53
1.11913 0.2778 0.143749 60
0.963632 0.2389 -0.12005 59
1.14434 0.2837 0.188997 93
0.996171 0.2467 -0.0878877 49
1.17155 0.2903 0.23695 61
1.0199 0.2524 -0.053142 61
1.17046 0.2896 0.280748 38
1.04643 0.2586 -0.016791 94
1.06226 0.2607 0.0211394 71
1.06289 0.2607 0.0594407 50
1.09321 0.2678 0.100599 50
0.948195 0.2319 -0.15278 55
1.12393 0.2749 0.144258 64
0.979836 0.2393 -0.121919 55
1.14334 0.2794 0.188695 85
0.985368 0.2405 -0.0868084 46
1.17255 0.2862 0.236952 59
1.0246 0.2498 -0.053333 57
1.17716 0.2869 0.282061 41
1.04143 0.2537 -0.0167006 89
1.05926 0.2563 0.0210337 72
1.06769 0.2579 0.0596499 49
1.09411 0.2639 0.100601 53
0.941293 0.2269 -0.151493 58
1.12672 0.2716 0.144463 67
0.980636 0.2361 -0.121918 55
1.15004 0.2768 0.189608 82
0.990069 0.238 -0.0871994 48
1.16205 0.2795 0.234631 58
1.0235 0.2459 -0.0532351 61
1.18376 0.2843 0.283473 42
1.04813 0.2514 -0.0167878 86
1.06216 0.2528 0.0211392 67
1.06669 0.2536 0.059548 56
1.10091 0.2615 0.101114 55
0.953596 0.2262 -0.15337 57
1.10843 0.2629 0.142028 67
0.973734 0.2307 -0.120931 55
1.15684 0.274 0.190521 76
0.99477 0.2355 -0.0874903 51
1.16495 0.2757 0.235037 65
1.0186 0.2408 -0.0528445 61
1.17726 0.2782 0.281661 43
1.04713 0.2471 -0.0167897 81
1.06296 0.2491 0.0211408 58
1.05389 0.2466 0.0587234 53
1.10181 0.2577 0.101116 56
0.956297 0.2234 -0.153664 61
1.10933 0.259 0.14203 64
0.968733 0.2259 -0.12024 56
1.14234 0.2663 0.187993 70
1.00337 0.2338 -0.0881738 52
1.16405 0.2712 0.234635 59
1.0253 0.2386 -0.0532317 61
1.17056 0.2723 0.279848 43
1.04793 0.2435 -0.0167881 76
1.06576 0.2459 0.0211462 50
1.06059 0.2443 0.0590363 56
1.10261 0.2538 0.101117 60
0.958997 0.2205 -0.153959 53
1.11603 0.2565 0.142743 69
0.973434 0.2234 -0.120731 58
1.13754 0.261 0.187084 61
1.00027 0.2294 -0.0878798 52
1.17835 0.2702 0.237363 65
1.0222 0.2341 -0.0530376 61
1.17536 0.2691 0.280757 46
1.03513 0.2367 -0.0165127 74
1.06076 0.2408 0.0210366 46
1.05169 0.2384 0.0585192 52
1.09191 0.2473 0.100097 57
0.957897 0.2167 -0.153661 61
1.12663 0.2548 0.144063 64
0.974234 0.22 -0.12073 56
1.14034 0.2575 0.18739 57
0.991369 0.2237 -0.0869969 52
1.16205 0.2622 0.233831 61
1.0347 0.2332 -0.0536136 63
1.18386 0.2667 0.282573 46
1.03793 0.2335 -0.0166073 60
1.05186 0.2349 0.0208195 48
1.06819 0.2382 0.0594509 59
1.09081 0.2431 0.0998944 61
0.943192 0.2099 -0.151189 73
1.11973 0.2491 0.14305 67
0.978835 0.2175 -0.121221 58
1.14514 0.2544 0.187999 55
0.992169 0.2203 -0.0869953 54
1.16105 0.2577 0.233529 63
1.0199 0.2261 -0.052742 64
1.17906 0.2613 0.281164 50
1.03483 0.229 -0.0165133 57
1.05656 0.2321 0.0209285 48
1.06309 0.2332 0.0590411 56
1.09751 0.2405 0.100407 60
0.959297 0.21 -0.153659 66
1.10703 0.2422 0.141326 60
0.971833 0.2124 -0.120234 56
1.15174 0.2516 0.189012 58
0.990968 0.2164 -0.0867976 54
1.15806 0.2528 0.232724 65
1.0129 0.2208 -0.0523555 64
1.17996 0.2572 0.281166 56
1.03953 0.2263 -0.0166043 57
1.06526 0.2301 0.0210452 48
1.05219 0.2271 0.0584202 56
1.10801 0.2388 0.101327 61
0.958096 0.2062 -0.153361 63
1.11173 0.2392 0.141835 66
0.972533 0.209 -0.120233 56
1.15264 0.2478 0.189013 60
1.00147 0.215 -0.0876775 57
1.16665 0.2504 0.23424 65
1.0176 0.2181 -0.0525464 64
1.16757 0.2502 0.278042 66
1.04423 0.2237 -0.0165952 65
1.06596 0.2266 0.0210465 48
1.06079 0.2251 0.0588367 56
1.10111 0.2333 0.100614 61
0.964598 0.2043 -0.154248 66
1.12033 0.2372 0.142751 64
0.981035 0.2074 -0.121217 58
1.13804 0.2405 0.186485 61
1.00217 0.2115 -0.0876761 57
1.17515 0.2482 0.235857 66
1.0183 0.2147 -0.0525451 68
1.17976 0.2487 0.280766 68
1.03323 0.2175 -0.0164164 71
1.05896 0.2212 0.0209331 50
1.06739 0.2226 0.0592493 63
1.09601 0.2284 0.100104 65
0.955695 0.1989 -0.152765 69
1.12693 0.2345 0.143564 67
0.973933 0.2024 -0.12023 58
1.14074 0.2369 0.18679 64
0.991168 0.2058 -0.0866973 57
1.17215 0.2433 0.235051 72
1.0307 0.2136 -0.0532213 70
1.18446 0.2454 0.281675 64
1.03793 0.2147 -0.0165073 79
1.05186 0.2159 0.0207195 50
1.07799 0.2209 0.0597697 71
1.09291 0.2238 0.0996984 65
0.952494 0.1948 -0.152072 69
1.12003 0.2289 0.142551 67
0.978534 0.1998 -0.120722 58
1.14544 0.2337 0.187399 70
0.997769 0.2035 -0.0871846 55
1.16146 0.2368 0.23273 70
1.0237 0.2084 -0.0527347 64
1.19296 0.2428 0.283491 60
1.03663 0.2107 -0.0165098 74
1.05266 0.2123 0.020721 51
1.06499 0.2144 0.0589447 63
1.09751 0.2207 0.100107 65
0.958996 0.1926 -0.153059 72
1.11303 0.2235 0.141537 76
0.971432 0.1948 -0.119735 64
1.15014 0.2305 0.188008 70
0.994568 0.1992 -0.0867907 55
1.16226 0.2328 0.232732 72
1.0126 0.2025 -0.052156 64
1.18806 0.2375 0.282081 57
1.04723 0.2091 -0.0165895 76
1.05926 0.2097 0.0208337 52
1.05799 0.2091 0.0585313 66
1.10611 0.2185 0.100824 65
0.963497 0.19 -0.153651 71
1.11183 0.2192 0.141335 70
0.970131 0.191 -0.119538 68
1.15094 0.2265 0.18801 66
1.00697 0.1981 -0.0878669 63
1.17465 0.231 0.235056 72
1.0173 0.1997 -0.052347 66
1.18316 0.2322 0.280772 60
1.05183 0.2062 -0.0166807 81
1.05996 0.206 0.020835 55
1.05669 0.205 0.0584288 67
1.10301 0.2138 0.100418 67
0.964197 0.1867 -0.153649 71
1.11453 0.2157 0.14154 75
0.978633 0.1891 -0.120521 69
1.13815 0.2199 0.185885 72
1.00767 0.1946 -0.0878656 60
1.17545 0.2269 0.235057 74
1.0238 0.1973 -0.0526345 71
1.18776 0.2288 0.281681 60
1.03883 0.1999 -0.0165056 88
1.05866 0.202 0.0208325 57
1.05939 0.2017 0.058534 70
1.09201 0.2078 0.0993967 65
0.958995 0.1822 -0.152759 73
1.12503 0.2136 0.14276 73
0.983234 0.1864 -0.120913 69
1.13695 0.2155 0.185483 70
0.992668 0.1881 -0.0864944 60
1.17235 0.222 0.234251 77
1.0284 0.1945 -0.0528257 80
1.18096 0.2232 0.279868 64
1.03953 0.1962 -0.0165043 88
1.04756 0.1961 0.0206112 60
1.06989 0.1999 0.0590541 67
1.09461 0.2043 0.0995017 71
0.955694 0.1781 -0.152065 76
1.11603 0.2079 0.141543 75
0.979933 0.1823 -0.120519 69
1.14934 0.2137 0.187407 70
1.00117 0.1861 -0.0871781 60
1.15576 0.2147 0.230819 73
1.0213 0.1894 -0.0524393 80
1.18166 0.2191 0.279869 69
1.04413 0.1933 -0.0164954 88
1.05226 0.1931 0.0207202 60
1.06669 0.1954 0.058848 67
1.09931 0.2012 0.0999107 71
0.956294 0.1748 -0.152064 69
1.10893 0.2026 0.140529 75
0.96883 0.1767 -0.11904 75
1.15204 0.2101 0.187712 72
1.00767 0.1836 -0.0876656 66
1.16616 0.2124 0.232739 77
1.018 0.1852 -0.0522457 71
1.17667 0.2139 0.27846 73
1.05663 0.1918 -0.0166714 86
1.05286 0.1895 0.0207214 60
1.05749 0.1899 0.0583303 70
1.09801 0.197 0.0997082 72
0.958894 0.1718 -0.152359 72
1.11743 0.2001 0.141546 78
0.96943 0.1733 -0.119039 75
1.14694 0.205 0.186802 75
1.01027 0.1805 -0.0878606 69
1.16496 0.208 0.232337 84
1.0127 0.1806 -0.0519558 70
1.18127 0.2105 0.279368 75
1.04543 0.186 -0.0164929 90
1.05356 0.1858 0.0207227 60
1.06799 0.188 0.0588505 72
1.10071 0.1935 0.0999134 77
0.971198 0.1705 -0.154236 71
1.11423 0.1955 0.141039 78
0.977832 0.1713 -0.120023 78
1.13205 0.1983 0.184274 86
1.00307 0.1756 -0.0871744 60
1.17345 0.2053 0.233853 92
1.0251 0.1791 -0.052532 84
1.17627 0.2054 0.278059 82
1.04803 0.1827 -0.016588 93
1.05026 0.1814 0.0206164 61
1.06069 0.183 0.0584365 72
1.08951 0.1876 0.0987919 77
0.971698 0.1671 -0.154235 74
1.11883 0.1923 0.141548 78
0.97063 0.1667 -0.119037 75
1.13465 0.1948 0.184579 89
1.00367 0.1721 -0.0871733 69
1.17805 0.2019 0.234662 86
1.0277 0.1758 -0.052627 77
1.17697 0.2015 0.27806 83
1.05063 0.1796 -0.016583 96
1.04496 0.1769 0.0205062 63
1.06329 0.1799 0.0585415 70
1.09411 0.1847 0.0992007 85
0.954793 0.1609 -0.151467 76
1.11943 0.1886 0.141549 79
0.986834 0.1662 -0.120906 73
1.14504 0.1927 0.186199 88
1.00417 0.1687 -0.0871723 69
1.16316 0.1954 0.231634 90
1.0244 0.1718 -0.0524334 71
1.18916 0.1995 0.280784 88
1.05123 0.1761 -0.0165818 90
1.06326 0.1764 0.0208414 72
1.07179 0.1775 0.0589578 78
1.10261 0.1824 0.099917 80
0.963095 0.159 -0.152751 76
1.10633 0.1826 0.139824 73
0.973731 0.1605 -0.119231 80
1.15544 0.1903 0.187719 79
1.00867 0.1659 -0.0874637 69
1.16386 0.1915 0.231635 92
1.0151 0.1668 -0.0519512 70
1.18217 0.1941 0.27897 87
1.05383 0.1728 -0.0165768 89
1.05996 0.1721 0.020735 78
1.05859 0.1715 0.0582325 72
1.10321 0.1783 0.0999182 85
0.969497 0.1565 -0.153639 71
1.10503 0.1784 0.139622 75
0.964428 0.1555 -0.118049 84
1.16004 0.1869 0.188427 78
1.01327 0.163 -0.0878548 69
1.16836 0.1878 0.232344 88
1.0177 0.1634 -0.0520463 75
1.16937 0.1876 0.275746 97
1.04843 0.1681 -0.0164872 90
1.06446 0.1688 0.0208437 78
1.06119 0.1679 0.0583374 78
1.09991 0.1738 0.0995119 77
0.970097 0.1531 -0.153638 71
1.11353 0.1756 0.140538 79
0.97093 0.1529 -0.118836 78
1.13735 0.179 0.184584 79
1.01577 0.1596 -0.08795 78
1.17295 0.1844 0.233152 94
1.0162 0.1595 -0.0519491 70
1.17767 0.1847 0.277561 97
1.05103 0.1646 -0.0165822 100
1.06506 0.1651 0.0208448 80
1.06179 0.1642 0.0583386 75
1.08871 0.168 0.0984904 92
0.966696 0.1489 -0.153044 81
1.12593 0.1735 0.142062 75
0.977331 0.1504 -0.119524 78
1.14375 0.1759 0.185496 79
1.01437 0.1557 -0.0878527 81
1.16976 0.1795 0.232346 92
1.0227 0.1567 -0.0522367 75
1.18607 0.1816 0.279378 97
1.03583 0.1585 -0.0163114 93
1.05576 0.16 0.020627 85
1.06629 0.1613 0.0585472 78
1.10111 0.1664 0.0995142 87
0.955392 0.1441 -0.151166 94
1.11863 0.1686 0.141048 79
0.983733 0.148 -0.120212 78
1.14824 0.1727 0.186205 79
1.00107 0.1505 -0.0866783 75
1.16256 0.1746 0.230832 96
1.0232 0.1535 -0.0522357 75
1.18667 0.1778 0.279379 97
1.02843 0.1539 -0.0162256 96
1.06026 0.1569 0.0207356 87
1.06489 0.1573 0.0584445 81
1.08981 0.1608 0.0984925 90
0.959893 0.1414 -0.151757 87
1.11133 0.1636 0.140134 78
0.978331 0.1437 -0.119522 89
1.14295 0.1678 0.185195 82
0.999568 0.1467 -0.0864811 73
1.16316 0.1706 0.230834 92
1.0139 0.1484 -0.0517535 85
1.18727 0.1737 0.27938 100
1.04083 0.152 -0.0164018 99
1.06276 0.1535 0.0207404 80
1.06539 0.1535 0.0584455 97
1.10811 0.1595 0.100128 97
0.962294 0.1383 -0.152053 96
1.11583 0.1602 0.140543 84
0.967028 0.1386 -0.118044 95
1.14745 0.1644 0.185903 99
1.00407 0.1438 -0.0867725 79
1.17146 0.1676 0.232349 94
1.0144 0.1449 -0.0517526 84
1.17817 0.1682 0.277162 100
1.04133 0.1484 -0.0164008 96
1.07126 0.1509 0.0209567 80
1.06589 0.1498 0.0584465 89
1.10081 0.1545 0.0994136 97
0.958893 0.1344 -0.151459 94
1.11633 0.1563 0.140543 85
0.97533 0.1364 -0.119028 89
1.14805 0.1604 0.185904 100
1.00057 0.1397 -0.0864792 73
1.17785 0.1643 0.233562 100
1.0228 0.1425 -0.0521365 85
1.18077 0.1643 0.277567 100
1.03593 0.1439 -0.0163112 100
1.05786 0.1453 0.020631 87
1.07239 0.1471 0.0587589 100
1.09141 0.1493 0.0984955 100
0.957392 0.1308 -0.151162 100
1.11883 0.1527 0.140848 91
0.97583 0.1329 -0.119027 89
1.14855 0.1566 0.185905 100
0.991166 0.1349 -0.0855973 75
1.17845 0.1602 0.233563 100
1.0312 0.14 -0.0525203 85
1.17937 0.1599 0.277165 100
1.02253 0.1386 -0.0160369 100
1.05436 0.1413 0.0206243 87
1.07289 0.1434 0.0587599 92
1.08601 0.1447 0.0979852 100
0.938186 0.125 -0.148099 100
1.12333 0.1495 0.141357 99
0.986133 0.131 -0.120207 84
1.14915 0.1526 0.185907 100
0.985765 0.1306 -0.0851076 78
1.16336 0.1543 0.230434 100
1.0317 0.1365 -0.0525194 89
1.18757 0.1571 0.27898 100
1.03683 0.1369 -0.0163095 100
1.05086 0.1371 0.0205175 92
1.06349 0.1383 0.0582419 100
1.09641 0.1424 0.0988051 100
0.95239 0.1235 -0.150272 100
1.10803 0.1436 0.139328 94
0.978631 0.1266 -0.119221 94
1.15744 0.1496 0.187122 100
1.00197 0.1294 -0.0864765 82
1.16396 0.1502 0.230435 100
1.0242 0.1319 -0.0521338 92
1.18817 0.1529 0.278982 100
1.04333 0.134 -0.016397 99
1.05336 0.1336 0.0205223 97
1.05999 0.1341 0.0580351 100
1.10481 0.1396 0.0995213 100
0.958692 0.1209 -0.15116 100
1.11843 0.1409 0.140547 100
0.973229 0.1224 -0.118532 100
1.15794 0.1455 0.187123 100
1.00637 0.1264 -0.0867681 82
1.16836 0.1466 0.231244 100
1.0227 0.1281 -0.0520367 98
1.17127 0.1466 0.274849 100
1.04373 0.1304 -0.0163962 99
1.06376 0.1312 0.0207423 92
1.05449 0.1297 0.0577246 100
1.10131 0.1352 0.0992145 100
0.959092 0.1176 -0.151159 100
1.12283 0.1375 0.141056 100
0.981531 0.12 -0.119516 100
1.13695 0.1388 0.183683 100
1.00687 0.1227 -0.0867671 82
1.16886 0.1423 0.231244 100
1.0271 0.1248 -0.0522282 98
1.17567 0.143 0.275758 100
1.02833 0.1248 -0.0161258 100
1.05626 0.1263 0.0206279 92
1.06089 0.1265 0.0580369 100
1.09581 0.1305 0.098704 100
0.959492 0.114 -0.151158 100
1.11943 0.1329 0.140549 100
0.974029 0.1154 -0.11853 100
1.14525 0.1356 0.184899 100
0.995367 0.1176 -0.0857892 85
1.16936 0.138 0.231245 100
1.0276 0.1211 -0.0522272 100
1.17807 0.1389 0.276262 100
1.02873 0.121 -0.016125 99
1.05276 0.122 0.0205212 92
1.06729 0.1235 0.0583492 100
1.09241 0.126 0.0982975 100
0.948088 0.1092 -0.14928 100
1.11993 0.1288 0.14055 100
0.990233 0.1137 -0.120499 92
1.14375 0.1314 0.184596 100
0.995867 0.1141 -0.0857882 85
1.16206 0.1331 0.229631 100
1.024 0.117 -0.0520342 100
1.18637 0.1354 0.278078 100
1.03913 0.1186 -0.016305 100
1.05316 0.1185 0.020522 92
1.07169 0.1202 0.0585576 100
1.09671 0.1227 0.0987057 100
0.952389 0.1065 -0.149872 100
1.11043 0.124 0.139332 100
0.986632 0.1099 -0.120006 99
1.14815 0.1278 0.185205 100
1.00607 0.1118 -0.0866686 93
1.16636 0.1296 0.23044 100
1.0204 0.1132 -0.0518411 100
1.18097 0.1309 0.276668 100
1.04753 0.1158 -0.0163889 100
1.05556 0.115 0.0205266 95
1.05819 0.1152 0.0578317 100
1.10111 0.1194 0.0990142 100
0.966494 0.1046 -0.152045 100
1.11483 0.1205 0.139841 100
0.97913 0.1057 -0.11902 96
1.14855 0.124 0.185205 100
1.00647 0.1084 -0.0866679 90
1.16486 0.1254 0.230037 100
1.0228 0.1098 -0.0519365 100
1.18147 0.1267 0.276669 100
1.04193 0.1117 -0.0162997 100
1.05986 0.112 0.0206348 97
1.06259 0.1119 0.0580401 100
1.10151 0.1156 0.0990149 100
0.960992 0.1008 -0.151155 100
1.11913 0.1173 0.140349 100
0.971628 0.1016 -0.118035 100
1.14505 0.1196 0.184599 100
1.01077 0.1053 -0.0869596 97
1.17706 0.1227 0.23236 100
1.0232 0.1064 -0.0519357 100
1.17607 0.1222 0.275358 100
1.03833 0.1077 -0.0162066 100
1.06026 0.1083 0.0206356 97
1.06689 0.1086 0.0582484 100
1.09001 0.1107 0.0979929 100
0.95539 0.0969 -0.150266 100
1.12353 0.1138 0.140857 100
0.97983 0.099 -0.119019 100
1.14155 0.1152 0.183992 100
1.00527 0.1012 -0.0864702 100
1.17356 0.1182 0.231653 100
1.0275 0.1033 -0.0521274 100
1.18417 0.1189 0.277174 100
1.04063 0.1042 -0.0163022 100
1.05666 0.1042 0.0205287 100
1.06329 0.1045 0.0580415 100
1.09641 0.1073 0.0985051 100
0.953789 0.0932 -0.149869 100
1.11603 0.1091 0.139843 100
0.988132 0.0963 -0.120003 100
1.14985 0.112 0.185208 100
1.01547 0.0987 -0.0872506 100
1.16616 0.1132 0.230039 100
1.0239 0.0991 -0.0519343 100
1.19047 0.1151 0.278486 100
1.04103 0.1006 -0.0163014 100
1.06106 0.1007 0.0206371 100
1.06369 0.1006 0.0580422 100
1.10071 0.1039 0.0988134 100
0.954089 0.0898 -0.149869 100
1.10454 0.1039 0.138321 100
0.98053 0.092 -0.119018 100
1.15215 0.1079 0.185512 100
1.01187 0.0947 -0.0869575 100
1.16656 0.1091 0.23004 100
1.0203 0.0952 -0.0517413 100
1.18117 0.11 0.276268 100
1.04933 0.0975 -0.0163855 100
1.06136 0.097 0.0206377 100
1.05809 0.0963 0.0577315 100
1.10101 0.1 0.098814 100
0.966193 0.0876 -0.151745 100
1.11673 0.1011 0.139844 100
0.972928 0.0878 -0.118032 100
1.15455 0.1041 0.185917 100
1.02207 0.0921 -0.0878379 100
1.17086 0.1054 0.230848 100
1.0206 0.0916 -0.0517407 100
1.17957 0.1057 0.275765 100
1.03973 0.093 -0.0162039 100
1.06166 0.0933 0.0206383 100
1.06239 0.0931 0.0579397 100
1.10141 0.0962 0.0988147 100
0.968494 0.0844 -0.152041 100
1.12103 0.0975 0.140352 100
0.977229 0.0848 -0.118524 100
1.14695 0.0996 0.184602 100
1.02247 0.0885 -0.0878372 100
1.17896 0.1019 0.232364 100
1.0209 0.0881 -0.0517401 100
1.17607 0.1013 0.274858 100
1.04003 0.0895 -0.0162033 100
1.06596 0.0901 0.0207465 100
1.06269 0.0894 0.0579403 100
1.09771 0.092 0.0985076 100
