1.48853 0.2267 0.0299373 100
1.4906 0.2265 0.0826425 100
1.49087 0.2263 0.135643 100
1.49124 0.2259 0.188844 100
1.48435 0.2244 -0.180674 8
1.48781 0.2248 0.242036 100
1.48182 0.2238 -0.12748 100
1.48628 0.2244 0.295933 92
1.49329 0.225 -0.0754514 100
1.50034 0.226 0.354167 35
1.50513 0.2239 0.0302778 100
1.4815 0.2199 0.0821202 100
1.48767 0.2205 0.135235 100
1.48415 0.2195 0.187927 100
1.48705 0.2195 -0.180867 8
1.48851 0.2196 0.242038 100
1.48452 0.2189 -0.127673 100
1.48708 0.2192 0.295934 94
1.48809 0.2189 -0.0751641 100
1.49534 0.2199 0.352755 35
1.52156 0.2233 -0.0230822 100
1.50193 0.2181 0.03017 100
1.4764 0.2138 0.0818078 100
1.49627 0.2165 0.135956 100
1.48485 0.2143 0.187929 100
1.48585 0.214 -0.18067 8
1.49321 0.215 0.242649 100
1.49712 0.2154 -0.128642 100
1.49168 0.2145 0.296746 92
1.49479 0.2146 -0.0754478 100
1.49025 0.2138 0.351442 36
1.50273 0.2128 0.030172 100
1.4751 0.2084 0.0817046 100
1.48917 0.2101 0.135239 100
1.49154 0.21 0.188645 100
1.48655 0.2089 -0.180668 8
1.48811 0.209 0.241737 100
1.49782 0.2102 -0.128641 100
1.50028 0.2104 0.298267 90
1.49359 0.2091 -0.0753507 100
1.48905 0.2083 0.350939 38
1.49553 0.2065 0.0300544 100
1.4837 0.2043 0.0821256 100
1.47808 0.2033 0.134212 100
1.49424 0.205 0.188852 100
1.47544 0.2021 -0.179195 9
1.48681 0.2035 0.241434 100
1.48282 0.2028 -0.127277 100
1.49708 0.2046 0.297459 90
1.50419 0.2052 -0.0759248 100
1.49364 0.2037 0.351851 39
1.48833 0.2002 0.0298368 100
1.4864 0.1994 0.0822322 100
1.48667 0.1992 0.134933 100
1.49094 0.1993 0.188444 100
1.48014 0.1974 -0.179684 8
1.49541 0.1993 0.242655 100
1.48151 0.1974 -0.12708 100
1.48608 0.1979 0.295232 95
1.49299 0.1984 -0.0752522 100
1.49055 0.1979 0.350943 40
1.49293 0.1955 0.029948 100
1.4832 0.1937 0.0820244 100
1.48338 0.1935 0.134525 100
1.48385 0.193 0.187426 100
1.47884 0.192 -0.179387 8
1.49611 0.1941 0.242656 100
1.49802 0.1942 -0.12844 100
1.48678 0.1927 0.295234 95
1.48969 0.1927 -0.0750602 100
1.50274 0.1942 0.353673 49
1.50153 0.1913 0.030069 100
1.47191 0.187 0.0813968 100
1.50187 0.1906 0.13617 100
1.48255 0.1876 0.187123 100
1.47754 0.1866 -0.17919 9
1.48891 0.1879 0.241439 100
1.50062 0.1893 -0.128634 100
1.49528 0.1885 0.296755 95
1.49039 0.1875 -0.0750585 100
1.49375 0.1878 0.351451 51
1.51196 0.1897 -0.0229057 99
1.50423 0.1863 0.0301756 100
1.47461 0.1821 0.0815034 100
1.49067 0.1839 0.135043 100
1.49494 0.1839 0.188653 100
1.47814 0.1814 -0.179189 9
1.48762 0.1825 0.241136 100
1.49732 0.1835 -0.128342 100
1.49588 0.1832 0.296756 95
1.49499 0.1827 -0.0752473 100
1.50794 0.1842 0.354586 48
1.50083 0.1806 0.0300673 100
1.47521 0.177 0.0815049 100
1.48538 0.1779 0.13453 100
1.49754 0.1789 0.18886 100
1.47874 0.1763 -0.179187 9
1.49211 0.1777 0.241747 100
1.49002 0.1774 -0.12766 100
1.48868 0.1771 0.295238 99
1.50359 0.1785 -0.0756263 100
1.51054 0.1792 0.355092 45
1.49353 0.1744 0.0298495 100
1.4837 0.1727 0.0819256 100
1.48798 0.173 0.134736 100
1.49224 0.173 0.188147 100
1.48534 0.1718 -0.179871 8
1.49081 0.1723 0.241443 100
1.49662 0.1729 -0.128143 100
1.50298 0.1735 0.297873 100
1.49229 0.1718 -0.0750539 100
1.50924 0.1737 0.354589 49
1.49413 0.1697 0.0298509 100
1.4882 0.1685 0.0821366 100
1.48648 0.1681 0.134533 100
1.48095 0.167 0.186619 100
1.47404 0.1658 -0.178499 9
1.49721 0.1683 0.242359 100
1.50512 0.1688 -0.128823 100
1.50348 0.1687 0.297875 100
1.49679 0.1676 -0.0752429 100
1.50004 0.1678 0.352366 53
1.52836 0.1706 -0.0230656 100
1.50263 0.1654 0.0300717 100
1.47291 0.1616 0.0812992 100
1.50097 0.1642 0.135768 100
1.48745 0.1624 0.187435 100
1.47264 0.1604 -0.178202 9
1.49781 0.163 0.242361 100
1.50172 0.1631 -0.128431 100
1.50408 0.1632 0.297876 100
1.49739 0.1621 -0.0752414 100
1.49685 0.1619 0.351459 53
1.50723 0.1603 0.0301829 100
1.47751 0.1566 0.0815105 100
1.49357 0.1581 0.13505 100
1.49205 0.1574 0.187946 100
1.48304 0.1561 -0.179377 8
1.48262 0.1559 0.239823 100
1.50622 0.1583 -0.12882 100
1.50857 0.1584 0.298687 100
1.49399 0.1565 -0.0750497 100
1.50514 0.1575 0.353279 51
1.50373 0.1546 0.0300744 100
1.482 0.1519 0.0817215 100
1.47828 0.1512 0.133612 100
1.49644 0.1526 0.188457 100
1.47764 0.1503 -0.17869 9
1.48512 0.1509 0.24013 100
1.50482 0.1528 -0.128623 100
1.50128 0.1523 0.297169 100
1.50249 0.1521 -0.0754289 100
1.50564 0.1522 0.35328 53
1.50033 0.149 0.0299661 100
1.4865 0.1473 0.0819325 100
1.48678 0.1469 0.134333 100
1.49305 0.147 0.187949 100
1.47814 0.1452 -0.178689 9
1.49351 0.1468 0.24145 100
1.47561 0.1447 -0.126095 100
1.49798 0.1467 0.296361 100
1.49899 0.1464 -0.0752375 100
1.51194 0.1475 0.354595 54
1.49283 0.1432 0.0298478 100
1.483 0.1418 0.0817239 100
1.48918 0.1419 0.134539 100
1.48165 0.1409 0.186421 100
1.47664 0.1401 -0.178492 9
1.49401 0.1415 0.241451 100
1.48801 0.1406 -0.127064 100
1.50228 0.1421 0.297172 100
1.49549 0.1411 -0.0750461 100
1.50084 0.1414 0.351868 59
1.50133 0.1387 0.0299685 100
1.47751 0.1363 0.0814105 100
1.49957 0.1378 0.135465 100
1.48615 0.1361 0.186932 100
1.46724 0.134 -0.177315 11
1.49841 0.1369 0.242062 100
1.48251 0.1351 -0.126578 100
1.49888 0.1365 0.296363 100
1.49199 0.1355 -0.0748546 100
1.49355 0.1355 0.35005 62
1.51373 0.1348 0.0301988 100
1.47601 0.131 0.0813068 100
1.50007 0.1326 0.135466 100
1.48655 0.1311 0.186933 100
1.48744 0.1309 -0.179666 10
1.48312 0.1303 0.239525 100
1.48691 0.1303 -0.126967 100
1.50328 0.1318 0.297174 100
1.49239 0.1306 -0.0748536 100
1.49395 0.1305 0.350051 62
1.49823 0.1282 0.029861 100
1.4824 0.1263 0.0816224 100
1.47868 0.1258 0.133513 100
1.49694 0.1268 0.188158 100
1.49785 0.1265 -0.180841 11
1.48752 0.1255 0.240135 100
1.47741 0.1246 -0.12609 100
1.50758 0.1269 0.297885 100
1.49689 0.1257 -0.0750426 100
1.50224 0.126 0.351872 59
1.50063 0.1231 0.0299668 100
1.4888 0.1216 0.0819381 100
1.48308 0.1209 0.133824 100
1.49145 0.1211 0.187445 100
1.49234 0.1208 -0.180154 10
1.49192 0.1206 0.240846 100
1.48581 0.12 -0.12677 100
1.50018 0.121 0.296367 100
1.49729 0.1205 -0.0750417 100
1.50264 0.1207 0.351873 59
1.49913 0.1177 0.0298632 100
1.4852 0.1161 0.0817293 100
1.48348 0.1157 0.133825 100
1.49185 0.1159 0.187446 100
1.48874 0.1153 -0.179663 10
1.50021 0.116 0.242066 100
1.48221 0.1143 -0.126379 100
1.50458 0.1161 0.297177 100
1.48969 0.1146 -0.0746602 100
1.50694 0.1158 0.352783 56
1.50543 0.1129 0.0300785 100
1.48361 0.1108 0.0816254 100
1.48788 0.1106 0.134236 100
1.49225 0.1107 0.187447 100
1.48324 0.1097 -0.178976 11
1.50061 0.1108 0.242067 100
1.49452 0.11 -0.127449 100
1.50498 0.1106 0.297178 100
1.49409 0.1094 -0.0748495 100
1.49185 0.1091 0.349146 62
1.51383 0.108 0.0301991 100
1.48201 0.1055 0.0815215 100
1.48828 0.1054 0.134237 100
1.49265 0.1052 0.187448 100
1.47574 0.1037 -0.177995 12
1.49112 0.1048 0.240444 100
1.49292 0.1046 -0.127253 100
1.51707 0.1061 0.299508 100
1.49849 0.1045 -0.0750387 100
1.51164 0.1052 0.353695 73
1.50623 0.1024 0.0300805 100
1.4864 0.1006 0.0817322 100
1.48068 0.0997 0.133518 100
1.50084 0.1008 0.188468 100
1.49384 0.1 -0.18015 11
1.49142 0.0996 0.240445 100
1.47741 0.0984 -0.12589 100
1.50958 0.1006 0.29789 100
1.50279 0.0998 -0.0752282 100
1.50414 0.0997 0.351876 76
1.50253 0.0969 0.0299715 100
1.48271 0.0954 0.0815232 100
1.48898 0.0953 0.134239 100
1.49725 0.0953 0.187959 100
1.49224 0.0946 -0.179854 10
1.49961 0.0952 0.241765 100
1.48171 0.0937 -0.12628 100
1.50208 0.0948 0.296371 100
1.49919 0.0943 -0.075037 100
1.52004 0.0954 0.355515 73
1.50693 0.0922 0.0300822 100
1.489 0.0906 0.0818386 100
1.48928 0.0901 0.134239 100
1.48565 0.0896 0.186431 100
1.49254 0.0897 -0.179854 11
1.49602 0.0897 0.241156 100
1.48991 0.089 -0.12696 100
1.50638 0.0901 0.297182 100
1.49549 0.0891 -0.0748461 100
1.51064 0.0898 0.353292 70
1.50523 0.0868 0.0299781 100
1.48131 0.0849 0.0814198 100
1.49348 0.0854 0.13455 100
1.49395 0.0849 0.187451 100
1.48684 0.0841 -0.179167 12
1.49632 0.0845 0.241157 100
1.49221 0.0839 -0.127054 100
1.51058 0.085 0.297892 100
1.49579 0.0839 -0.0748453 100
1.50704 0.0843 0.352383 68
1.51743 0.0822 0.0302079 100
1.47961 0.0796 0.0813156 100
1.49388 0.0799 0.134551 100
1.49815 0.0799 0.187961 100
1.49114 0.0792 -0.179657 10
1.48872 0.0788 0.239838 100
1.48461 0.0783 -0.126373 100
1.51477 0.0797 0.298702 100
1.50009 0.0786 -0.0750348 100
1.50734 0.0788 0.352384 57
1.51373 0.0764 0.0301988 100
1.4899 0.075 0.0818408 100
1.48618 0.0743 0.133832 100
1.50244 0.0746 0.188472 100
1.49935 0.0741 -0.180637 10
1.49102 0.0737 0.240144 100
1.48681 0.0732 -0.126567 100
1.51108 0.0742 0.297893 100
1.50429 0.0736 -0.0752246 100
1.50954 0.0736 0.35279 56
1.50403 0.0709 0.0299751 100
1.4881 0.0697 0.0817364 100
1.48238 0.0689 0.133523 100
1.49665 0.0693 0.187658 100
1.49765 0.069 -0.180341 10
1.49122 0.0685 0.240144 100
1.48111 0.0678 -0.126081 100
1.50348 0.0688 0.296375 100
1.49659 0.0682 -0.0748434 100
1.51564 0.0689 0.354204 53
1.50823 0.0659 0.0300854 100
1.4904 0.0646 0.081842 100
1.49058 0.0643 0.134243 100
1.49295 0.0639 0.187149 100
1.48994 0.0635 -0.17936 10
1.49142 0.0633 0.240145 100
1.48531 0.063 -0.126371 100
1.51158 0.0639 0.297894 100
1.49679 0.063 -0.0748429 100
1.51784 0.0637 0.35461 49
1.51053 0.0607 0.030091 100
1.48061 0.059 0.081318 100
1.49678 0.0593 0.134758 100
1.50114 0.059 0.188169 100
1.48614 0.0581 -0.178969 11
1.50151 0.0585 0.24177 100
1.48951 0.058 -0.126761 100
1.51178 0.0586 0.297895 100
1.49699 0.0578 -0.0748424 100
1.50634 0.0579 0.351882 42
1.52263 0.0558 0.0303206 97
1.48481 0.0539 0.0815283 100
1.49098 0.0539 0.134244 100
1.49735 0.0536 0.187659 100
1.48634 0.0529 -0.178969 9
1.49382 0.053 0.240451 100
1.48571 0.0526 -0.12637 100
1.51987 0.0536 0.299515 100
1.49719 0.0525 -0.0748419 100
1.50465 0.0526 0.351478 38
1.51083 0.0501 0.0300917 97
1.489 0.0489 0.0817386 100
1.48318 0.0484 0.133524 100
1.50544 0.0486 0.188679 100
1.49244 0.0479 -0.179654 8
1.49792 0.0479 0.241161 100
1.47791 0.0472 -0.125689 100
1.51607 0.0482 0.298705 100
1.50539 0.0476 -0.0752219 100
1.51254 0.0476 0.353297 35
1.45553 0.336 0.0243218 29
1.44125 0.3305 0.285639 41
1.48537 0.3399 -0.0284147 65
1.45083 0.3296 0.0242275 43
1.46479 0.3322 0.0769105 91
1.49826 0.3395 0.13257 90
1.48723 0.3365 0.185383 95
1.47429 0.333 0.237499 100
1.50213 0.3394 -0.136535 76
1.47496 0.3329 0.291998 61
1.4923 0.3366 -0.0820233 100
1.49437 0.3365 -0.0285257 86
1.48513 0.332 0.0247856 60
1.4777 0.3297 0.0774947 100
1.48586 0.3313 0.131385 99
1.49223 0.3321 0.185877 71
1.47929 0.3287 0.238193 100
1.48774 0.3307 -0.135118 85
1.47996 0.3286 0.292792 77
1.4993 0.3327 -0.0823318 100
1.50917 0.3343 -0.0288438 100
1.45133 0.3364 0.0242269 22
1.44095 0.3318 0.28564 41
1.45053 0.3309 0.0242279 43
1.4645 0.3335 0.0769108 91
1.47913 0.336 0.184393 95
1.48559 0.3369 0.239385 96
1.47086 0.333 0.291303 61
1.4609 0.3306 -0.0802849 79
1.49407 0.3378 -0.0285254 73
1.49273 0.3348 0.0248763 60
1.4677 0.3286 0.0770069 100
1.49536 0.3345 0.132173 94
1.49203 0.3332 0.185877 73
1.47909 0.3297 0.238193 100
1.49524 0.3334 -0.135827 87
1.49316 0.3326 0.295476 81
1.4932 0.3324 -0.0820244 100
1.50887 0.3354 -0.0288434 100
1.49193 0.3291 0.0248773 86
1.4727 0.3243 0.0772008 92
1.46926 0.3233 0.129805 100
1.48543 0.3263 0.184885 63
1.45588 0.3196 -0.184779 6
1.48409 0.3254 0.238787 100
1.49644 0.3282 -0.135828 100
1.48276 0.3248 0.293189 75
1.4983 0.3281 -0.0822306 100
1.49837 0.3275 -0.0286306 100
1.46763 0.3184 0.024407 82
1.4797 0.3207 0.0774923 81
1.48016 0.3203 0.130692 81
1.48263 0.3202 0.184389 87
1.46087 0.3154 -0.185285 6
1.48129 0.3197 0.23819 100
1.48784 0.3209 -0.135018 97
1.48776 0.3205 0.293983 82
1.4975 0.3224 -0.0821296 100
1.50137 0.323 -0.0286343 100
1.47853 0.3156 0.0245937 97
1.4769 0.3147 0.0772957 78
1.47736 0.3143 0.130295 66
1.47202 0.3128 0.183002 87
1.46967 0.3122 -0.186296 7
1.48819 0.3157 0.239082 100
1.49674 0.3174 -0.135729 100
1.49266 0.3164 0.294677 80
1.479 0.3133 -0.081007 100
1.51227 0.3198 -0.0288476 100
1.48743 0.3121 0.0246828 100
1.4701 0.3079 0.076904 78
1.48616 0.311 0.130984 64
1.47703 0.3085 0.183396 95
1.46887 0.3066 -0.186095 7
1.48539 0.3097 0.238485 100
1.47824 0.3083 -0.133906 100
1.49756 0.312 0.295471 82
1.482 0.3086 -0.0811107 100
1.48483 0.3087 0.348186 9
1.51147 0.3141 -0.0287466 100
1.49633 0.3085 0.0248719 100
1.479 0.3044 0.0772931 83
1.48136 0.3046 0.13049 72
1.48973 0.3058 0.18488 92
1.47187 0.3019 -0.186298 7
1.47299 0.3018 0.236301 100
1.48514 0.3044 -0.134515 100
1.50246 0.3075 0.296165 82
1.4831 0.3034 -0.081112 100
1.48203 0.3028 0.34729 9
1.50277 0.3068 -0.028636 100
1.49543 0.3029 0.024773 100
1.482 0.2999 0.0773895 85
1.47076 0.2971 0.129503 69
1.49083 0.3006 0.184879 92
1.48067 0.2986 -0.187309 7
1.47779 0.2977 0.236895 100
1.47254 0.2964 -0.133199 100
1.50356 0.3023 0.296163 80
1.492 0.2998 -0.0816229 100
1.48493 0.2983 0.347786 11
1.50377 0.3018 -0.0286372 100
1.48863 0.2964 0.0246813 100
1.4791 0.2942 0.077193 87
1.47956 0.2937 0.130192 76
1.48593 0.2945 0.184185 96
1.48547 0.2945 -0.187815 7
1.48659 0.2943 0.238184 100
1.47744 0.2923 -0.133605 100
1.49296 0.295 0.293976 82
1.4851 0.2933 -0.0811145 100
1.49353 0.2948 0.349576 15
1.51257 0.2984 -0.028748 100
1.49353 0.2922 0.0247753 100
1.4762 0.2883 0.0769965 87
1.48046 0.2888 0.130191 76
1.48113 0.2884 0.183391 95
1.47287 0.2866 -0.1861 7
1.49149 0.2899 0.238778 100
1.48624 0.2887 -0.134316 100
1.49396 0.2901 0.293975 82
1.4783 0.2868 -0.0807061 100
1.49463 0.2896 0.349574 17
1.51557 0.2935 -0.0287516 100
1.49843 0.2877 0.0247693 100
1.4752 0.2827 0.0768978 91
1.48546 0.2841 0.130485 81
1.48593 0.284 0.183885 88
1.46218 0.2792 -0.184587 8
1.48079 0.2824 0.236891 90
1.47944 0.282 -0.133608 100
1.49506 0.2846 0.293974 82
1.4813 0.2818 -0.0808098 100
1.49183 0.2834 0.348678 19
1.50877 0.2867 -0.0286433 100
1.49943 0.2822 0.0247681 100
1.47429 0.2769 0.0767989 95
1.48446 0.2786 0.130286 91
1.48893 0.2789 0.184181 87
1.46707 0.2746 -0.185092 7
1.47799 0.2763 0.236294 80
1.48634 0.2779 -0.134116 97
1.50756 0.2815 0.296158 84
1.4901 0.2781 -0.0812206 97
1.49083 0.2779 0.348179 20
1.50587 0.2805 -0.0285398 100
1.49653 0.2763 0.0247717 97
1.4811 0.2729 0.0770906 93
1.47956 0.2723 0.129792 94
1.49973 0.2755 0.185368 91
1.47387 0.2706 -0.185801 7
1.47889 0.2711 0.236293 87
1.46764 0.2691 -0.132393 92
1.49696 0.2741 0.293971 86
1.4911 0.2729 -0.0812218 94
1.49953 0.274 0.349968 17
1.50877 0.2756 -0.0286433 100
1.49153 0.27 0.0246778 87
1.4899 0.2691 0.0774798 83
1.48446 0.2679 0.130186 94
1.49673 0.2695 0.184872 92
1.48457 0.2672 -0.187014 7
1.49349 0.2684 0.238476 95
1.47254 0.2647 -0.132699 92
1.48826 0.2672 0.291982 89
1.492 0.2677 -0.0812229 96
1.50813 0.2702 0.351758 17
1.51367 0.271 -0.0286493 100
1.50433 0.2669 0.0248621 87
1.47899 0.2618 0.0768931 93
1.48536 0.2627 0.130185 97
1.48593 0.2622 0.183385 95
1.46987 0.2592 -0.185096 7
1.49049 0.2625 0.237879 97
1.48524 0.2616 -0.133815 92
1.49306 0.2627 0.292776 90
1.4831 0.2607 -0.080712 100
1.50333 0.2639 0.350464 18
1.51857 0.2664 -0.0287553 100
1.50133 0.2609 0.0247658 86
1.47399 0.2557 0.0765992 100
1.49216 0.2585 0.130677 100
1.48492 0.2567 0.183186 96
1.47077 0.2541 -0.185097 7
1.48949 0.257 0.23748 100
1.49394 0.2578 -0.134525 97
1.49786 0.2581 0.29357 90
1.486 0.2559 -0.0808156 100
1.49843 0.2577 0.34907 19
1.50177 0.258 -0.0284348 100
1.50613 0.2564 0.0248599 90
1.47489 0.2505 0.0765981 100
1.48516 0.252 0.129986 100
1.48973 0.2522 0.18368 96
1.47557 0.2496 -0.185603 7
1.48259 0.2504 0.236289 100
1.47914 0.2499 -0.133107 100
1.49486 0.2522 0.292774 90
1.4888 0.251 -0.080919 100
1.48592 0.2502 0.345985 22
1.49867 0.2521 -0.028331 100
1.50503 0.251 0.0247613 100
1.47569 0.2456 0.0765972 100
1.47616 0.2454 0.129097 100
1.49833 0.2485 0.18467 96
1.47837 0.245 -0.185806 7
1.48919 0.2465 0.237181 100
1.47414 0.2438 -0.132501 100
1.49566 0.2473 0.292773 90
1.4975 0.2474 -0.0814296 100
1.49243 0.2462 0.347277 22
1.50147 0.2475 -0.0284344 100
1.49793 0.2445 0.0246699 100
1.48049 0.2411 0.0767913 99
1.48686 0.2416 0.129984 100
1.49133 0.242 0.183678 100
1.48307 0.2405 -0.186312 8
1.49009 0.2413 0.23718 100
1.47884 0.2393 -0.132907 100
1.48886 0.2405 0.291281 92
1.4984 0.2419 -0.0814307 100
1.49142 0.2404 0.346878 24
1.51027 0.2435 -0.0285452 98
1.49493 0.2384 0.0245736 100
1.4854 0.2363 0.0769853 100
1.49366 0.2373 0.130475 100
1.48832 0.236 0.183182 100
1.48007 0.2345 -0.185808 7
1.49289 0.2361 0.237476 100
1.48164 0.2344 -0.13311 100
1.48966 0.2353 0.29128 90
1.4874 0.2348 -0.0807173 100
1.49613 0.2358 0.347772 35
1.51507 0.2386 -0.028651 100
1.49373 0.2328 0.0245751 100
1.47239 0.229 0.0763012 100
1.49056 0.2315 0.130179 100
1.49113 0.2311 0.183378 100
1.47108 0.2278 -0.184597 9
1.49369 0.2309 0.237475 100
1.48844 0.2302 -0.133619 100
1.49436 0.2307 0.291974 95
1.4882 0.2296 -0.0807182 100
1.49312 0.23 0.346876 36
1.50797 0.2321 -0.0284423 99
1.50643 0.2294 0.0247596 100
1.47509 0.2241 0.0763979 100
1.48736 0.2257 0.129783 100
1.49193 0.2259 0.183377 100
1.47577 0.2232 -0.185103 8
1.47889 0.2234 0.234993 100
1.49114 0.2253 -0.133822 100
1.49906 0.2261 0.292769 92
1.491 0.2247 -0.0808217 100
1.49773 0.2254 0.34777 36
1.49533 0.2224 0.0245731 100
1.47979 0.2196 0.0765921 100
1.47636 0.2188 0.128796 100
1.49663 0.2212 0.183872 100
1.48247 0.2189 -0.185811 8
1.48359 0.2188 0.235688 100
1.48604 0.2192 -0.133216 100
1.49206 0.2197 0.291277 95
1.4937 0.2198 -0.080925 100
1.50233 0.2207 0.348665 35
1.48823 0.216 0.0243818 100
1.4865 0.2155 0.076884 100
1.48896 0.2153 0.129781 100
1.49142 0.2152 0.183178 100
1.48517 0.214 -0.186115 8
1.49599 0.2155 0.237472 100
1.48874 0.2143 -0.133419 100
1.48505 0.2134 0.289786 94
1.4965 0.2149 -0.0810284 100
1.49923 0.2149 0.347769 37
1.50083 0.2128 0.0246664 100
1.47539 0.2086 0.0762975 100
1.48966 0.2101 0.12978 100
1.48632 0.2094 0.182484 100
1.47208 0.2072 -0.184399 9
1.50069 0.2109 0.238167 100
1.49344 0.2096 -0.133825 100
1.49346 0.2096 0.291276 92
1.4873 0.2085 -0.0805171 100
1.49612 0.2094 0.346872 38
1.50153 0.2075 0.0246656 100
1.47019 0.2027 0.0760039 100
1.48636 0.2046 0.129484 100
1.48302 0.2037 0.181988 100
1.48457 0.2037 -0.185814 8
1.49359 0.2046 0.236875 100
1.49214 0.2044 -0.133623 100
1.49426 0.2044 0.291275 92
1.4959 0.2044 -0.0809276 100
1.48332 0.2023 0.343688 39
1.50623 0.2028 0.0246598 100
1.47479 0.1981 0.0761983 100
1.48716 0.1995 0.129483 100
1.49162 0.1995 0.182978 100
1.47548 0.1972 -0.184603 9
1.48249 0.1978 0.234989 100
1.49684 0.1997 -0.133929 100
1.49496 0.1992 0.291274 97
1.4966 0.1992 -0.0809285 100
1.50723 0.2002 0.349059 49
1.49503 0.196 0.0244735 100
1.47749 0.1932 0.076295 100
1.47986 0.1932 0.128792 100
1.49823 0.1951 0.18367 100
1.48407 0.193 -0.185613 8
1.48319 0.1926 0.234988 100
1.47974 0.1922 -0.132408 100
1.50926 0.1957 0.293956 100
1.5013 0.1945 -0.0811342 100
1.50403 0.1945 0.348163 49
1.49373 0.1905 0.0244751 100
1.48009 0.1883 0.0763918 100
1.48846 0.1891 0.129482 100
1.49102 0.1889 0.182678 100
1.49057 0.1886 -0.186321 8
1.49369 0.1887 0.236575 100
1.49814 0.1893 -0.13393 100
1.50606 0.1899 0.29316 100
1.502 0.1892 -0.0811351 100
1.51433 0.1904 0.35045 51
1.49433 0.1853 0.0244743 100
1.48069 0.1834 0.076391 100
1.48916 0.1839 0.129481 100
1.48382 0.1827 0.181687 100
1.47748 0.1817 -0.184605 9
1.49429 0.1837 0.236575 100
1.48894 0.1828 -0.133119 100
1.50276 0.1842 0.292364 100
1.4907 0.1825 -0.0805213 100
1.50533 0.184 0.348161 49
1.52237 0.1861 -0.0286599 100
1.50293 0.1813 0.0245638 100
1.46949 0.1768 0.0758047 100
1.48976 0.1787 0.12948 100
1.48632 0.178 0.181984 100
1.46628 0.1754 -0.183092 9
1.49689 0.1787 0.236871 100
1.50344 0.1793 -0.134337 100
1.50726 0.1797 0.293159 100
1.4953 0.178 -0.0807269 100
1.50593 0.179 0.34816 46
1.51143 0.177 0.0247535 100
1.47009 0.1716 0.075804 100
1.49626 0.1744 0.129972 100
1.48892 0.173 0.182181 100
1.46878 0.1705 -0.183395 9
1.48569 0.1721 0.234985 100
1.50004 0.1738 -0.133933 100
1.51176 0.1749 0.293953 100
1.4959 0.1728 -0.0807277 100
1.50653 0.1737 0.34816 49
1.50413 0.1708 0.0245624 100
1.48649 0.1683 0.076584 100
1.47906 0.1672 0.128393 100
1.49352 0.1683 0.182675 100
1.47728 0.1663 -0.184405 11
1.49219 0.1676 0.235977 100
1.50454 0.1691 -0.134338 100
1.50846 0.1692 0.293157 100
1.5004 0.168 -0.0809331 100
1.50713 0.1685 0.348159 54
1.49673 0.1647 0.0244714 100
1.48309 0.1629 0.0763881 100
1.49346 0.1635 0.129575 100
1.49212 0.1629 0.182477 100
1.48967 0.1624 -0.18582 8
1.49469 0.1629 0.236274 100
1.48144 0.1612 -0.13221 100
1.49346 0.1622 0.290076 100
1.4971 0.1624 -0.0807291 100
1.50963 0.1634 0.348656 53
1.49733 0.1597 0.0244707 100
1.47969 0.1573 0.0761923 100
1.49206 0.1581 0.129477 100
1.48472 0.1571 0.181486 100
1.47838 0.1562 -0.184406 9
1.49529 0.1577 0.236273 100
1.48594 0.1565 -0.132516 100
1.50176 0.1581 0.291665 100
1.4936 0.157 -0.0805248 100
1.51023 0.1584 0.348655 53
1.50183 0.1549 0.0245652 100
1.47629 0.1518 0.0759964 100
1.49856 0.1538 0.129969 100
1.48922 0.1523 0.181981 100
1.47298 0.1504 -0.1836 9
1.49579 0.1524 0.236273 100
1.49044 0.1517 -0.132921 100
1.50626 0.1532 0.29236 100
1.4941 0.1518 -0.0805255 100
1.49912 0.152 0.345969 53
1.51833 0.1513 0.024745 100
1.47279 0.1462 0.0758007 100
1.49516 0.1479 0.129573 100
1.49372 0.1475 0.182475 100
1.47158 0.1451 -0.183398 9
1.48449 0.1461 0.234387 100
1.48304 0.1457 -0.132212 100
1.50676 0.1477 0.292359 100
1.4947 0.1463 -0.0805262 100
1.50162 0.1467 0.346366 56
1.50293 0.1442 0.0245638 100
1.48529 0.1422 0.0763854 100
1.48576 0.1417 0.128785 100
1.49422 0.142 0.182475 100
1.47998 0.1404 -0.184408 9
1.48899 0.1412 0.234981 100
1.47954 0.1401 -0.131808 100
1.50736 0.1424 0.292359 100
1.4992 0.1415 -0.0807317 100
1.50212 0.1414 0.346365 59
1.49943 0.1388 0.0244681 100
1.48969 0.1374 0.0765801 100
1.49806 0.1376 0.12977 100
1.49862 0.1374 0.182969 100
1.48238 0.1357 -0.184611 9
1.48949 0.136 0.23498 100
1.48594 0.1355 -0.132416 100
1.49606 0.1364 0.290072 100
1.4957 0.1361 -0.0805274 100
1.49872 0.1361 0.345469 61
1.49983 0.1336 0.0244676 100
1.48219 0.1318 0.0761892 100
1.50256 0.133 0.130164 100
1.48522 0.131 0.181186 100
1.48677 0.1309 -0.185117 11
1.48599 0.1308 0.234385 100
1.48244 0.1302 -0.132011 100
1.50046 0.1315 0.290867 100
1.4882 0.1302 -0.0801182 100
1.49912 0.1309 0.345469 61
1.50233 0.1288 0.0244646 100
1.47669 0.1261 0.0758959 100
1.48706 0.1264 0.128783 100
1.49162 0.1265 0.181978 100
1.48328 0.1256 -0.184612 12
1.49039 0.1259 0.234979 100
1.49084 0.1257 -0.132721 100
1.50476 0.1269 0.291662 100
1.4926 0.1256 -0.0803236 100
1.49182 0.1252 0.343678 62
1.44225 0.335 0.285938 32
1.44593 0.333 0.0241335 25
1.44942 0.3324 0.180829 51
1.43755 0.3289 0.284844 41
1.45293 0.3296 0.0242249 43
1.4649 0.332 0.0769103 91
1.49456 0.3381 0.132174 86
1.48343 0.3351 0.184888 95
1.48589 0.3353 0.239385 100
1.50223 0.3389 -0.136535 85
1.47506 0.3323 0.291998 61
1.4924 0.3361 -0.0820234 100
1.49113 0.3325 0.0248783 60
1.4681 0.3268 0.0770064 100
1.49386 0.3322 0.132075 100
1.48663 0.3301 0.185084 63
1.48139 0.3284 0.23849 100
1.50343 0.3333 -0.136537 90
1.48966 0.3299 0.29468 81
1.4917 0.3302 -0.0819225 100
1.49567 0.3305 -0.0285273 100
1.49823 0.3286 0.0249696 90
1.4712 0.3221 0.0771027 79
1.47936 0.3236 0.130693 100
1.48963 0.3253 0.18538 68
1.46207 0.3191 -0.185586 6
1.48059 0.3228 0.238191 100
1.48904 0.3247 -0.135119 93
1.48316 0.323 0.293188 73
1.487 0.3237 -0.0816168 100
1.49677 0.3253 -0.0285287 100
1.46613 0.3162 0.0244088 85
1.4762 0.3178 0.0772965 73
1.47856 0.318 0.130494 76
1.47913 0.3176 0.183893 87
1.47097 0.3157 -0.186597 6
1.47979 0.3172 0.237892 100
1.49404 0.3203 -0.135525 100
1.48816 0.3187 0.293982 80
1.4881 0.3185 -0.0816181 100
1.50767 0.3221 -0.028742 100
1.48093 0.314 0.0245907 95
1.4734 0.3118 0.0771 66
1.48166 0.3133 0.13069 67
1.47633 0.3116 0.183396 90
1.46627 0.3093 -0.185792 7
1.48479 0.3128 0.238486 100
1.50493 0.3172 -0.136439 100
1.49696 0.3151 0.295471 80
1.4755 0.3104 -0.0808027 100
1.49553 0.3143 0.350873 7
1.51467 0.3181 -0.0288505 100
1.49373 0.3112 0.0247751 100
1.46659 0.3053 0.0767083 81
1.49246 0.3101 0.131477 69
1.48133 0.3073 0.18389 95
1.46927 0.3046 -0.186095 7
1.48769 0.3083 0.238783 100
1.48454 0.3075 -0.134514 100
1.49806 0.3099 0.29547 82
1.4825 0.3065 -0.0811113 100
1.48143 0.3059 0.34729 9
1.51377 0.3127 -0.0288494 100
1.49673 0.3067 0.0248714 100
1.46769 0.3002 0.0767069 81
1.48966 0.3041 0.13118 69
1.49013 0.3039 0.18488 91
1.47027 0.2997 -0.186096 7
1.47719 0.3007 0.236895 100
1.47584 0.3003 -0.133603 100
1.49906 0.3049 0.295469 82
1.4874 0.3024 -0.0814173 100
1.48433 0.3014 0.347787 10
1.49727 0.3038 -0.0285293 100
1.49773 0.3015 0.0248702 100
1.4746 0.2962 0.0769985 83
1.47886 0.2968 0.130193 72
1.49313 0.2991 0.185076 96
1.47127 0.2946 -0.186098 7
1.47819 0.2956 0.236894 100
1.47484 0.295 -0.133402 100
1.49626 0.2989 0.294672 82
1.4924 0.298 -0.0816234 100
1.49873 0.2988 0.350869 13
1.50027 0.299 -0.0285329 100
1.49493 0.2954 0.0247736 100
1.4874 0.2934 0.0775829 92
1.47216 0.2901 0.129502 76
1.49223 0.2935 0.184877 91
1.48987 0.2929 -0.18832 7
1.49089 0.2927 0.238779 100
1.47394 0.2895 -0.133201 100
1.49346 0.2929 0.293976 84
1.4895 0.292 -0.0814198 100
1.49973 0.2936 0.350868 16
1.51497 0.2964 -0.0287509 100
1.49193 0.2895 0.0246773 100
1.4825 0.2871 0.0772888 91
1.48486 0.2873 0.130486 85
1.47762 0.2853 0.182995 92
1.47137 0.2839 -0.185798 7
1.49769 0.2886 0.23967 100
1.47694 0.2847 -0.133405 100
1.49826 0.2885 0.29467 82
1.4807 0.2849 -0.0808091 100
1.49883 0.288 0.350469 17
1.51797 0.2915 -0.0288546 100
1.49693 0.285 0.0247712 100
1.46779 0.2789 0.0765068 100
1.48776 0.2824 0.130682 91
1.48253 0.2809 0.183389 91
1.46458 0.2773 -0.184789 7
1.49099 0.2819 0.238479 81
1.47794 0.2795 -0.133406 100
1.49926 0.2832 0.294668 84
1.4856 0.2805 -0.0810151 100
1.48833 0.2806 0.347782 19
1.50917 0.2844 -0.0286438 100
1.50183 0.2805 0.0248652 100
1.47069 0.2742 0.0766033 100
1.48876 0.2772 0.130681 91
1.48933 0.2768 0.184181 87
1.46548 0.2722 -0.184791 7
1.48219 0.2749 0.236889 82
1.48674 0.2758 -0.134116 96
1.50416 0.2787 0.295463 84
1.4944 0.2767 -0.0815258 96
1.49513 0.2765 0.349074 18
1.49837 0.2769 -0.0284306 100
1.50873 0.2763 0.0249568 87
1.4874 0.2719 0.0773829 85
1.47406 0.2692 0.129299 91
1.49613 0.2727 0.184872 91
1.46648 0.2671 -0.184792 7
1.48319 0.2698 0.236888 87
1.47584 0.2685 -0.133103 96
1.50316 0.2731 0.295064 87
1.4993 0.2722 -0.0817318 96
1.49793 0.2716 0.34957 17
1.51117 0.2738 -0.0286463 100
1.49783 0.269 0.0247701 86
1.4824 0.2656 0.077089 91
1.48286 0.2654 0.129988 91
1.48933 0.266 0.183881 92
1.47717 0.2637 -0.186105 7
1.48219 0.2642 0.236589 97
1.48074 0.2641 -0.133409 92
1.49636 0.2665 0.293572 89
1.4943 0.2659 -0.0814257 99
1.50463 0.2674 0.350862 18
1.51007 0.2682 -0.0286449 100
1.49873 0.2637 0.024769 87
1.47549 0.2591 0.0766974 100
1.48766 0.261 0.130283 100
1.48633 0.2602 0.183384 95
1.49177 0.2609 -0.187823 7
1.49089 0.2604 0.237879 95
1.48554 0.2596 -0.133815 93
1.49346 0.2606 0.292776 89
1.4874 0.2593 -0.0809173 100
1.50563 0.2621 0.350861 18
1.51887 0.2643 -0.0287557 100
1.50363 0.2592 0.024763 90
1.47439 0.2536 0.0765987 100
1.49056 0.2561 0.130479 97
1.48913 0.2553 0.183681 96
1.47897 0.2534 -0.186107 7
1.49569 0.2559 0.238473 100
1.49044 0.2551 -0.134121 96
1.49436 0.2554 0.292774 90
1.4863 0.2538 -0.0808159 100
1.48722 0.2536 0.346383 21
1.50207 0.256 -0.0284351 100
1.51833 0.2563 0.025045 95
1.47529 0.2484 0.0765976 100
1.48556 0.2499 0.129985 100
1.49393 0.2508 0.184175 98
1.47197 0.2469 -0.185098 7
1.48289 0.2484 0.236288 100
1.48534 0.2489 -0.133615 100
1.49136 0.2495 0.291978 94
1.4931 0.2496 -0.0811242 100
1.48432 0.2478 0.345487 22
1.49707 0.2497 -0.028329 99
1.51133 0.2496 0.0248536 100
1.48009 0.2439 0.0767918 99
1.47456 0.2428 0.128899 100
1.49093 0.2449 0.183679 98
1.47877 0.2427 -0.185807 8
1.48959 0.2442 0.23718 100
1.47834 0.2424 -0.132906 100
1.49216 0.2443 0.291977 92
1.4979 0.245 -0.0814301 100
1.49483 0.2442 0.347774 24
1.50977 0.2464 -0.0285445 99
1.49243 0.2412 0.0245767 100
1.4829 0.2391 0.0768884 100
1.48526 0.2392 0.129786 100
1.49173 0.2397 0.183678 98
1.48547 0.2385 -0.186615 8
1.49049 0.239 0.237179 100
1.48514 0.2382 -0.133415 100
1.49306 0.2391 0.291976 90
1.4909 0.2385 -0.0809215 100
1.50333 0.2402 0.349564 33
1.50267 0.2399 -0.0284359 100
1.49323 0.236 0.0245757 100
1.48169 0.2339 0.0767898 100
1.48606 0.234 0.129785 100
1.48472 0.2333 0.182686 100
1.47447 0.2315 -0.185102 8
1.49709 0.2349 0.238171 100
1.48204 0.2324 -0.133111 100
1.48996 0.2333 0.29128 90
1.4838 0.2321 -0.0805129 100
1.49453 0.2334 0.347274 35
1.49603 0.2313 0.0245723 100
1.47459 0.2275 0.0763985 100
1.49286 0.2297 0.130276 100
1.48742 0.2286 0.182983 100
1.47328 0.2263 -0.1848 8
1.49009 0.2285 0.23688 100
1.48874 0.2281 -0.133619 100
1.49466 0.2289 0.291974 94
1.4846 0.2272 -0.0805138 100
1.48372 0.2267 0.344588 37
1.50473 0.2273 0.0247616 100
1.47739 0.2226 0.0764951 100
1.48766 0.2239 0.129783 100
1.48822 0.2234 0.182982 100
1.47797 0.2217 -0.185306 8
1.47919 0.2215 0.234993 100
1.49144 0.2235 -0.133822 100
1.49546 0.2237 0.291973 97
1.4932 0.2232 -0.0809243 100
1.49803 0.2235 0.34777 35
1.49763 0.2209 0.0245703 100
1.48009 0.2178 0.0765918 100
1.47656 0.217 0.128796 100
1.49493 0.2191 0.183674 100
1.47877 0.2166 -0.185307 8
1.48379 0.217 0.235687 100
1.48034 0.2165 -0.132709 100
1.50976 0.2205 0.294656 100
1.498 0.2185 -0.0811302 100
1.49683 0.218 0.347272 37
1.49443 0.2151 0.0245742 100
1.48089 0.2126 0.0765908 100
1.48126 0.2124 0.12909 100
1.48972 0.2131 0.18298 100
1.48537 0.2122 -0.186115 8
1.49239 0.2129 0.236877 100
1.48504 0.2119 -0.133114 100
1.50276 0.2141 0.293164 100
1.4967 0.213 -0.0810286 100
1.49182 0.212 0.345978 38
1.49513 0.2099 0.0245734 100
1.47569 0.2066 0.0762972 100
1.48996 0.2083 0.12978 100
1.48262 0.2068 0.181989 100
1.47438 0.2054 -0.184601 9
1.50099 0.2088 0.238166 100
1.48774 0.207 -0.133218 100
1.50736 0.2094 0.293959 100
1.4836 0.2059 -0.0803126 100
1.49252 0.2068 0.345977 38
1.52662 -0.0578 0.0309632 100
1.49268 -0.0568 0.0824687 100
1.50473 -0.0578 0.136003 99
1.50108 -0.0582 0.188693 100
1.4763 -0.0575 -0.177178 9
1.50143 -0.0585 0.242294 100
1.50746 -0.059 -0.127791 100
1.52536 -0.06 0.301161 80
1.51092 -0.0596 -0.074981 100
1.51781 -0.0602 0.35514 38
1.51667 -0.0601 -0.0222648 100
1.52042 -0.0627 0.0308459 100
1.49647 -0.0622 0.0826793 100
1.48663 -0.0623 0.134352 91
1.50088 -0.0632 0.188692 100
1.4761 -0.0624 -0.177179 9
1.50523 -0.0639 0.242904 100
1.49726 -0.0638 -0.126919 100
1.51737 -0.0647 0.299638 80
1.51472 -0.0648 -0.0751704 100
1.52151 -0.0654 0.35605 40
1.51047 -0.0652 -0.0221821 100
1.51222 -0.0676 0.030623 100
1.50017 -0.0676 0.0828896 100
1.50433 -0.0681 0.136001 97
1.50858 -0.0688 0.189713 100
1.49171 -0.0682 -0.179135 8
1.50493 -0.0692 0.242904 100
1.50106 -0.0689 -0.127209 100
1.51317 -0.0698 0.298827 84
1.51052 -0.0699 -0.0749821 100
1.52911 -0.0711 0.357871 40
1.51617 -0.0707 -0.0222662 100
1.51592 -0.0731 0.0307334 100
1.50597 -0.0731 0.0832058 100
1.50213 -0.0732 0.135795 91
1.50238 -0.0738 0.188996 100
1.4855 -0.0731 -0.178452 9
1.50863 -0.0746 0.243514 100
1.50076 -0.0742 -0.12721 100
1.51687 -0.0753 0.299637 84
1.49831 -0.0746 -0.0744162 100
1.51911 -0.0759 0.355644 42
1.52987 -0.0767 -0.0224279 100
1.51962 -0.0786 0.0308437 100
1.48968 -0.0773 0.0823603 100
1.50583 -0.0787 0.136206 91
1.50608 -0.0792 0.189406 100
1.4773 -0.0779 -0.177475 9
1.50843 -0.0796 0.243513 100
1.50056 -0.0794 -0.12721 100
1.52446 -0.081 0.301158 79
1.50601 -0.0802 -0.0747947 100
1.51492 -0.081 0.354732 43
1.52967 -0.0818 -0.0224285 100
1.52742 -0.0841 0.0309655 100
1.49348 -0.0827 0.0825709 100
1.50353 -0.0838 0.135999 85
1.50978 -0.0844 0.189917 96
1.4711 -0.0825 -0.176793 9
1.49823 -0.0843 0.241985 100
1.50426 -0.0849 -0.1276 100
1.53396 -0.0866 0.303085 70
1.50972 -0.0855 -0.0749844 100
1.51462 -0.0861 0.354731 41
1.52337 -0.0868 -0.022346 100
1.51912 -0.0889 0.0308423 100
1.49907 -0.0883 0.0828865 100
1.50123 -0.0887 0.135793 87
1.50948 -0.0897 0.189916 98
1.4847 -0.0884 -0.178455 9
1.49993 -0.0897 0.24229 100
1.49396 -0.0893 -0.126729 100
1.51997 -0.0911 0.300346 75
1.50942 -0.0907 -0.0749852 100
1.52601 -0.0921 0.357463 41
1.52107 -0.092 -0.0223525 100
1.51282 -0.0939 0.0307247 100
1.50277 -0.0938 0.0830969 83
1.50093 -0.0939 0.135792 91
1.50918 -0.095 0.189915 98
1.4765 -0.0931 -0.177478 8
1.50743 -0.0954 0.24351 100
1.50356 -0.0951 -0.127602 100
1.51177 -0.096 0.298823 86
1.51312 -0.0962 -0.0751749 100
1.52371 -0.0973 0.356956 40
1.53467 -0.0982 -0.0225145 100
1.51242 -0.0991 0.0307236 100
1.50247 -0.099 0.083096 83
1.50852 -0.0997 0.136513 91
1.50288 -0.0999 0.189198 92
1.4722 -0.098 -0.17699 8
1.50713 -0.1007 0.24351 100
1.50726 -0.1006 -0.127891 100
1.51137 -0.1012 0.298822 86
1.50471 -0.101 -0.0747983 100
1.52341 -0.1026 0.356956 37
1.53637 -0.1037 -0.0226097 100
1.52402 -0.1052 0.030956 100
1.49218 -0.1036 0.0825673 81
1.51812 -0.1057 0.13744 94
1.50448 -0.1052 0.189402 96
1.45399 -0.1019 -0.17484 6
1.51072 -0.1062 0.24422 100
1.51086 -0.1062 -0.128281 100
1.51297 -0.1067 0.299226 89
1.50642 -0.1064 -0.0748936 100
1.51721 -0.1075 0.355638 34
1.52997 -0.1086 -0.0225276 100
1.52772 -0.1109 0.0309663 100
1.49977 -0.1094 0.0829885 68
1.50183 -0.1098 0.135994 85
1.51007 -0.1109 0.190218 95
1.4695 -0.1081 -0.176797 6
1.50053 -0.1108 0.242591 100
1.50256 -0.1108 -0.127605 100
1.51267 -0.1119 0.299225 90
1.51002 -0.1119 -0.0750835 100
1.53122 -0.1165 0.0310761 100
1.49937 -0.1146 0.0829874 64
1.49953 -0.1149 0.135788 91
1.51757 -0.1168 0.191139 91
1.4691 -0.1133 -0.176798 6
1.50792 -0.1166 0.243912 100
1.48626 -0.1149 -0.12625 100
1.51617 -0.1175 0.300035 90
1.51362 -0.1175 -0.0753735 100
1.51492 -0.1206 0.0307306 100
1.50297 -0.1199 0.0831974 64
1.50303 -0.1204 0.136198 100
1.51717 -0.1221 0.191137 91
1.4667 -0.118 -0.176505 6
1.50752 -0.1216 0.243911 97
1.49376 -0.1207 -0.126929 100
1.50787 -0.1222 0.298412 89
1.51122 -0.1226 -0.0751802 100
1.53277 -0.1247 -0.0225198 100
1.51652 -0.1258 0.030835 100
1.50447 -0.125 0.0833016 60
1.50662 -0.1258 0.136508 100
1.50877 -0.1265 0.190214 92
1.51302 -0.1271 0.244826 92
1.50126 -0.1263 -0.127608 97
1.51527 -0.1278 0.300033 89
1.50682 -0.1273 -0.0749925 97
1.53237 -0.1297 -0.0225209 100
1.52402 -0.1315 0.030956 100
1.49217 -0.1293 0.0826673 81
1.51012 -0.1311 0.136918 100
1.50448 -0.1311 0.189702 92
1.51262 -0.1324 0.244825 85
1.50876 -0.1322 -0.128287 97
1.51877 -0.1332 0.300742 89
1.50632 -0.1323 -0.0749939 96
1.53187 -0.1351 -0.0225223 100
1.53152 -0.1375 0.0310769 100
1.49967 -0.1352 0.0830882 95
1.50772 -0.1364 0.136711 97
1.51387 -0.1373 0.190928 87
1.50033 -0.1366 0.242891 85
1.50036 -0.1368 -0.127611 93
1.51827 -0.1388 0.300741 87
1.51382 -0.1385 -0.0754729 96
1.51947 -0.1393 -0.0223569 98
1.52702 -0.1427 0.0310644 100
1.49907 -0.1407 0.0830865 100
1.50522 -0.1415 0.136504 100
1.51727 -0.1432 0.191438 83
1.51162 -0.1432 0.244822 85
1.49196 -0.1413 -0.126934 97
1.51777 -0.1441 0.30074 89
1.51732 -0.1442 -0.0756631 94
1.52297 -0.1453 -0.0224472 98
1.51462 -0.1469 0.0308297 100
1.50057 -0.1461 0.0831907 99
1.50073 -0.1464 0.136191 91
1.51477 -0.1483 0.191131 67
1.50912 -0.1483 0.244515 61
1.49546 -0.1469 -0.127224 88
1.51537 -0.1492 0.300333 77
1.51082 -0.1489 -0.0753813 83
1.52637 -0.151 -0.0225377 100
1.51402 -0.1522 0.0308281 76
1.49607 -0.1509 0.0829781 60
1.51077 -0.1537 -0.128582 66
1.51232 -0.1544 -0.0754771 42
1.52387 -0.1561 -0.0224446 100
1.51052 0.0591 0.0306183 100
1.48858 0.0577 0.0822572 100
1.48683 0.0574 0.134353 100
1.49118 0.057 0.187465 100
1.49221 0.0568 -0.179134 10
1.49953 0.0568 0.241988 100
1.49156 0.0565 -0.126435 100
1.50977 0.057 0.298017 100
1.49511 0.0561 -0.0742252 100
1.51212 0.0565 0.353824 41
1.51072 0.0538 0.0306188 100
1.47288 0.052 0.0813134 100
1.49503 0.0525 0.135075 100
1.49538 0.052 0.187977 100
1.4805 0.0512 -0.177666 11
1.49973 0.0516 0.241989 100
1.48976 0.0512 -0.12624 100
1.51787 0.052 0.29964 100
1.49931 0.051 -0.0744134 100
1.50652 0.0511 0.352408 37
1.52092 0.0489 0.0308473 93
1.48298 0.0474 0.0819416 100
1.49513 0.0473 0.135076 100
1.49548 0.0468 0.187977 100
1.4846 0.0461 -0.178155 9
1.49003 0.0463 0.240362 100
1.49396 0.0462 -0.126529 100
1.51797 0.0467 0.29964 100
1.49941 0.0458 -0.0744131 100
1.50662 0.0458 0.352409 36
1.52102 0.0438 0.0308476 87
1.48918 0.0424 0.0822589 100
1.48333 0.0417 0.134043 100
1.50358 0.042 0.189 100
1.4828 0.0411 -0.17796 9
1.49213 0.0412 0.240668 100
1.48216 0.0406 -0.125562 100
1.51027 0.0414 0.298019 100
1.50761 0.0411 -0.0747902 100
1.50482 0.0407 0.352004 34
1.50322 0.0381 0.0303979 95
1.48528 0.0371 0.082048 100
1.48753 0.0369 0.134354 100
1.50378 0.0368 0.189 100
1.49481 0.0363 -0.179326 8
1.50023 0.0362 0.24199 100
1.51016 0.0364 -0.127883 100
1.49478 0.0358 0.294975 100
1.49971 0.0356 -0.0744123 100
1.51282 0.0357 0.353826 35
1.50332 0.0328 0.0303982 100
1.48938 0.032 0.0822594 100
1.50353 0.032 0.135799 100
1.48998 0.0312 0.187162 100
1.49101 0.031 -0.178837 7
1.50423 0.031 0.242602 100
1.49636 0.0308 -0.126722 100
1.51057 0.0309 0.298019 100
1.49581 0.0303 -0.0742232 100
1.51482 0.0304 0.354232 35
1.50742 0.0276 0.0305096 100
1.48148 0.0266 0.0818374 100
1.49963 0.0267 0.135488 100
1.49398 0.0261 0.187673 100
1.4871 0.0257 -0.178448 8
1.50233 0.0257 0.242296 100
1.50636 0.0258 -0.127594 100
1.50678 0.0255 0.297309 100
1.49991 0.0251 -0.0744117 100
1.49933 0.0249 0.350588 38
1.52352 0.0226 0.0308546 97
1.48358 0.0215 0.0819432 100
1.49973 0.0215 0.135489 100
1.50208 0.021 0.188695 100
1.4892 0.0205 -0.178642 9
1.49653 0.0204 0.24138 100
1.50646 0.0205 -0.127594 100
1.52247 0.0205 0.300353 100
1.50401 0.0199 -0.0746003 100
1.50133 0.0197 0.351094 39
1.51562 0.0172 0.0307325 95
1.48968 0.0164 0.0822603 100
1.49183 0.0161 0.134767 100
1.50608 0.0158 0.189206 100
1.4853 0.0153 -0.178153 8
1.49853 0.0152 0.241686 100
1.50656 0.0152 -0.127593 100
1.51867 0.0151 0.299642 100
1.50811 0.0147 -0.0747889 100
1.49363 0.0143 0.349272 41
1.50762 0.0118 0.0305102 100
1.48968 0.0112 0.0822603 100
1.49393 0.011 0.134872 100
1.50018 0.0105 0.18849 100
1.4853 0.0101 -0.178153 9
1.50453 0.01 0.242602 100
1.50056 0.0099 -0.12711 100
1.50688 0.0097 0.297309 100
1.50811 0.0095 -0.0747889 100
1.52291 0.0093 0.356054 53
1.50772 0.0066 0.0305105 100
1.48968 0.006 0.0822603 100
1.49393 0.0057 0.134872 94
1.49818 0.0052 0.188184 100
1.4794 0.0049 -0.177469 9
1.50453 0.0047 0.242602 100
1.51056 0.0047 -0.127882 100
1.50698 0.0045 0.297309 100
1.50011 0.0042 -0.0744112 100
1.52101 0.004 0.355649 54
1.50772 0.0013 0.0305105 100
1.48178 0.0008 0.0818382 100
1.51182 0.0005 0.136522 97
1.49428 0 0.187674 100
1.4655 -0.0003 -0.175808 9
1.50653 -0.0005 0.242908 100
1.51056 -0.0005 -0.127882 100
1.51477 -0.0008 0.298831 100
1.50411 -0.001 -0.0746 100
1.51322 -0.0013 0.353827 48
1.51572 -0.004 0.0307328 100
1.48178 -0.0041 0.0818382 100
1.50383 -0.0047 0.1358 97
1.50218 -0.0052 0.188696 100
1.4774 -0.0054 -0.177175 9
1.49473 -0.0055 0.240975 100
1.50856 -0.0058 -0.127788 100
1.51867 -0.0061 0.299642 100
1.50411 -0.0063 -0.0746 100
1.51322 -0.0066 0.353827 48
1.51162 -0.009 0.0306214 100
1.48968 -0.0094 0.0822603 100
1.50783 -0.01 0.136211 100
1.50218 -0.0102 0.188696 100
1.4853 -0.0104 -0.178153 9
1.49863 -0.0107 0.241686 100
1.49856 -0.011 -0.126916 100
1.51867 -0.0111 0.299642 100
1.51012 -0.0113 -0.0748833 100
1.51702 -0.0117 0.354738 46
1.51162 -0.0142 0.0306214 100
1.49767 -0.0144 0.0826826 100
1.50383 -0.015 0.1358 100
1.49818 -0.0154 0.188184 100
1.4892 -0.0156 -0.178642 9
1.50053 -0.0157 0.241991 100
1.50256 -0.016 -0.127205 100
1.51077 -0.0164 0.29802 100
1.50401 -0.0165 -0.0746003 100
1.52481 -0.017 0.356559 46
1.50752 -0.0192 0.0305099 100
1.48958 -0.0195 0.08226 100
1.49973 -0.0202 0.135489 100
1.49408 -0.0203 0.187673 100
1.4812 -0.0204 -0.177664 9
1.50833 -0.0211 0.243213 100
1.51646 -0.0214 -0.128466 100
1.51857 -0.0215 0.299642 100
1.50401 -0.0215 -0.0746003 100
1.51692 -0.022 0.354737 46
1.51152 -0.0245 0.0306211 100
1.47758 -0.0245 0.0816265 100
1.50763 -0.0253 0.136211 100
1.49598 -0.0256 0.187978 100
1.4752 -0.0255 -0.176981 9
1.50433 -0.0263 0.242602 100
1.51636 -0.0267 -0.128466 100
1.52047 -0.0268 0.300047 99
1.50391 -0.0268 -0.0746006 100
1.51292 -0.0272 0.353826 43
1.51742 -0.0299 0.0307376 100
1.48548 -0.0298 0.0820485 100
1.49363 -0.0305 0.134872 100
1.49988 -0.0309 0.188489 100
1.4771 -0.0307 -0.177176 9
1.49243 -0.0313 0.240669 100
1.50826 -0.0318 -0.127789 100
1.52816 -0.0326 0.301569 95
1.50982 -0.0324 -0.0748841 100
1.51282 -0.0328 0.353826 42
1.51747 -0.0328 -0.0222625 98
1.52132 -0.0356 0.0308484 100
1.49128 -0.0354 0.0823647 100
1.49153 -0.0357 0.134766 100
1.50768 -0.0366 0.189411 100
1.477 -0.0361 -0.177176 9
1.50213 -0.037 0.242296 100
1.50016 -0.0369 -0.127111 100
1.51827 -0.0377 0.299641 93
1.51562 -0.0378 -0.0751679 100
1.51662 -0.0381 0.354737 40
1.51937 -0.0385 -0.0222572 100
1.50912 -0.0406 0.0306144 100
1.49717 -0.0408 0.0826812 100
1.50133 -0.0412 0.135593 100
1.50358 -0.0418 0.189 100
1.4808 -0.0413 -0.177666 9
1.50003 -0.0422 0.24199 100
1.50406 -0.0423 -0.1274 100
1.51417 -0.0428 0.29883 84
1.50751 -0.0429 -0.0747905 100
1.52811 -0.0438 0.357469 40
1.52317 -0.0439 -0.0223466 100
1.51302 -0.046 0.0306253 100
1.48908 -0.0458 0.0822586 100
1.51312 -0.0468 0.136726 100
1.49348 -0.0467 0.187671 100
1.4747 -0.0463 -0.176983 9
1.50383 -0.0475 0.2426 100
1.51586 -0.0479 -0.128467 100
1.51407 -0.0481 0.298829 82
1.49941 -0.0479 -0.0744131 100
1.52021 -0.0489 0.355647 40
1.51907 -0.0491 -0.0222581 100
1.51682 -0.0514 0.0307359 100
1.48488 -0.0508 0.0820469 100
1.50693 -0.0518 0.136209 100
1.50728 -0.0524 0.18941 100
1.4745 -0.0515 -0.176983 9
1.50563 -0.0529 0.242905 100
1.51967 -0.0533 -0.128757 100
1.52167 -0.0537 0.30035 82
1.50721 -0.0534 -0.0747914 100
1.51222 -0.0539 0.353824 41
1.52487 -0.0546 -0.0223419 100
1.52462 -0.057 0.0308577 100
1.49068 -0.0562 0.0823631 100
1.49883 -0.0568 0.135486 100
1.50508 -0.0576 0.189204 100
1.4783 -0.0568 -0.177473 9
1.49753 -0.0578 0.241683 100
1.50746 -0.0582 -0.127791 100
1.52546 -0.0592 0.301161 82
1.51102 -0.0588 -0.0749808 100
1.51592 -0.0593 0.354735 41
1.50667 -0.0592 -0.0220927 100
1.52442 -0.0623 0.0308571 100
1.49448 -0.0616 0.0825737 100
1.49263 -0.0618 0.134869 93
1.50688 -0.0629 0.189409 100
1.4741 -0.0618 -0.176984 9
1.50123 -0.0632 0.242293 100
1.50726 -0.0634 -0.127791 100
1.51737 -0.0642 0.299638 80
1.51872 -0.0644 -0.0754592 100
1.51961 -0.0648 0.355645 37
1.51447 -0.0648 -0.0222709 100
1.51022 -0.0667 0.0306174 100
1.50217 -0.0669 0.0829952 100
1.49843 -0.067 0.135485 91
1.50468 -0.0678 0.189203 100
1.49371 -0.0675 -0.179329 8
1.50893 -0.0686 0.243515 100
1.49906 -0.0681 -0.127114 100
1.51327 -0.069 0.298827 86
1.51052 -0.0691 -0.0749821 100
1.52131 -0.0699 0.35605 35
1.51827 -0.07 -0.0222603 100
1.51792 -0.0724 0.0307389 100
1.49997 -0.0721 0.082889 100
1.50213 -0.0724 0.135795 91
1.50238 -0.073 0.188996 100
1.4816 -0.0722 -0.177963 9
1.51262 -0.074 0.244225 100
1.50476 -0.0736 -0.127598 100
1.51687 -0.0745 0.299637 82
1.49831 -0.0738 -0.0744162 100
1.50942 -0.0747 0.353316 38
1.52997 -0.0759 -0.0224276 100
1.52172 -0.0779 0.0308496 100
1.48778 -0.0764 0.082255 100
1.50583 -0.0779 0.136206 91
1.51008 -0.0786 0.189918 100
1.4714 -0.0768 -0.176792 8
1.51242 -0.079 0.244224 100
1.51246 -0.0792 -0.128277 100
1.51667 -0.0798 0.299637 82
1.51002 -0.0797 -0.0749835 100
1.50522 -0.0797 0.352405 38
1.52967 -0.081 -0.0224285 100
1.52542 -0.0832 0.0309599 100
1.49148 -0.0818 0.0824653 100
1.50753 -0.0833 0.13631 85
1.50588 -0.0834 0.189406 98
1.4791 -0.0821 -0.17767 8
1.50023 -0.0837 0.24229 100
1.50226 -0.084 -0.127405 100
1.53396 -0.0858 0.303085 69
1.50581 -0.0844 -0.0747953 100
1.51272 -0.0852 0.354226 36
1.52137 -0.0859 -0.0223516 100
1.52112 -0.0882 0.0308479 100
1.49917 -0.0872 0.0828868 95
1.49333 -0.0874 0.135071 87
1.51347 -0.0892 0.190427 96
1.4808 -0.0874 -0.177966 8
1.49993 -0.0886 0.24229 100
1.49996 -0.0888 -0.127212 100
1.52386 -0.0906 0.301157 73
1.51742 -0.0904 -0.0754629 100
1.51242 -0.0904 0.354225 37
1.52507 -0.0911 -0.0224413 100
1.51082 -0.0927 0.0306191 100
1.49887 -0.0925 0.082886 85
1.49903 -0.093 0.135587 94
1.50918 -0.0939 0.189915 98
1.4844 -0.0926 -0.178455 8
1.50753 -0.0944 0.243511 100
1.50166 -0.0942 -0.127407 100
1.51577 -0.0951 0.299634 84
1.50521 -0.0947 -0.074797 100
1.51991 -0.096 0.356046 36
1.53277 -0.097 -0.0225198 100
1.51452 -0.0982 0.0307295 100
1.50447 -0.0981 0.0832016 81
1.50663 -0.0985 0.136308 94
1.50488 -0.0989 0.189403 96
1.4742 -0.0971 -0.177184 6
1.51512 -0.1001 0.244832 100
1.50136 -0.0994 -0.127408 100
1.51537 -0.1004 0.299633 86
1.50081 -0.0997 -0.0746092 100
1.51571 -0.101 0.355134 35
1.53437 -0.1024 -0.0225153 100
1.52612 -0.1043 0.0309618 100
1.49218 -0.1025 0.0825673 85
1.51022 -0.1043 0.136718 97
1.50848 -0.1045 0.189913 98
1.464 -0.1016 -0.176012 8
1.51472 -0.1054 0.244831 100
1.50696 -0.1051 -0.127892 100
1.51697 -0.1061 0.300037 89
1.50241 -0.1053 -0.0747048 100
1.50752 -0.106 0.353311 35
1.53207 -0.1077 -0.0225217 100
1.52172 -0.1096 0.0308496 100
1.49178 -0.108 0.0825661 85
1.50792 -0.1094 0.136511 91
1.51607 -0.1106 0.190934 96
1.4576 -0.1065 -0.17533 6
1.50453 -0.1103 0.243202 100
1.49856 -0.1098 -0.127216 100
1.51657 -0.1114 0.300036 90
1.51402 -0.1114 -0.0753724 100
1.52071 -0.1123 0.356548 33
1.52132 -0.1149 0.0308484 100
1.50137 -0.114 0.083093 73
1.50353 -0.1144 0.136199 91
1.51167 -0.1156 0.190422 98
1.50802 -0.1158 0.243912 100
1.49826 -0.115 -0.127217 100
1.51227 -0.1164 0.299224 92
1.51362 -0.1167 -0.0753735 100
1.51492 -0.1198 0.0307306 100
1.50897 -0.1196 0.0835142 73
1.50513 -0.1198 0.136304 94
1.51327 -0.121 0.190727 91
1.4628 -0.1171 -0.176016 6
1.51152 -0.1211 0.244522 96
1.49586 -0.1201 -0.127123 97
1.50407 -0.1211 0.297701 90
1.50722 -0.1215 -0.0749914 100
1.51452 -0.1248 0.0307295 100
1.49657 -0.1239 0.0828795 68
1.50862 -0.1254 0.136713 94
1.50488 -0.1254 0.189703 92
1.51902 -0.1271 0.245743 95
1.50336 -0.1259 -0.127802 97
1.51927 -0.1274 0.300744 87
1.50682 -0.1265 -0.0749925 100
1.52837 -0.1289 -0.0225321 100
1.52212 -0.1308 0.0309507 100
1.49417 -0.1286 0.0827728 73
1.51612 -0.1311 0.137434 100
1.51037 -0.1311 0.190418 87
1.4679 -0.1276 -0.176802 6
1.51662 -0.1319 0.245436 87
1.51086 -0.1316 -0.128481 92
1.51497 -0.1323 0.300032 87
1.51042 -0.1321 -0.0751824 100
1.52962 -0.1365 0.0310716 100
1.49567 -0.134 0.082877 92
1.50972 -0.1358 0.136916 100
1.51387 -0.1365 0.190928 85
1.51022 -0.1367 0.244518 90
1.50636 -0.1365 -0.128094 93
1.51837 -0.1377 0.300741 89
1.51392 -0.1375 -0.0754727 97
1.51557 -0.1382 -0.0223678 99
1.52112 -0.1411 0.0309479 100
1.49527 -0.1393 0.0828759 99
1.49933 -0.1399 0.135987 99
1.51737 -0.1421 0.191438 81
1.49403 -0.1405 0.241973 77
1.48806 -0.1398 -0.126545 100
1.52176 -0.1434 0.301551 89
1.51742 -0.1431 -0.0756629 93
1.51507 -0.1435 -0.0223692 99
1.50872 -0.1453 0.0307133 100
1.49867 -0.1449 0.0830854 95
1.50083 -0.1453 0.136192 91
1.50897 -0.1467 0.190415 73
1.51322 -0.1476 0.245127 68
1.50346 -0.1466 -0.127902 92
1.51547 -0.1481 0.300333 82
1.51492 -0.1482 -0.0755699 86
1.52647 -0.1499 -0.0225374 100
1.52212 -0.1519 0.0309507 90
1.50017 -0.1503 0.0831896 76
1.50033 -0.1506 0.13619 37
1.50296 -0.1521 -0.127903 72
1.50442 -0.1525 -0.0749992 57
1.52797 -0.1555 -0.0225332 100
1.49948 0.2075 0.0274468 100
1.47785 0.2043 0.0792317 100
1.49201 0.2057 0.132842 100
1.49247 0.2053 0.186042 100
1.47513 0.2026 -0.18177 9
1.47933 0.2032 0.237533 100
1.49039 0.2044 -0.13056 100
1.49559 0.2049 0.294544 92
1.50196 0.2055 -0.0783515 100
1.48836 0.2034 0.347939 38
1.49618 0.202 0.0274445 100
1.47855 0.1991 0.0792322 100
1.47691 0.1984 0.131431 100
1.49707 0.2008 0.186545 100
1.47183 0.1972 -0.181273 9
1.48003 0.198 0.237533 100
1.47929 0.1976 -0.129567 100
1.4924 0.1994 0.293742 94
1.50266 0.2005 -0.078351 100
1.48906 0.1985 0.34794 41
1.49088 0.196 0.0272408 100
1.48324 0.1945 0.0794355 100
1.48151 0.194 0.131734 100
1.49187 0.1948 0.185842 100
1.48043 0.193 -0.182267 8
1.49243 0.1944 0.239442 100
1.48589 0.1932 -0.130063 100
1.4814 0.1927 0.291434 95
1.49145 0.1937 -0.0777588 100
1.50715 0.1955 0.351952 50
1.49948 0.1918 0.0274468 100
1.48384 0.1893 0.0794359 100
1.49611 0.1903 0.133045 100
1.48467 0.1886 0.184837 100
1.47713 0.1874 -0.181769 9
1.49513 0.1894 0.239744 100
1.49249 0.1888 -0.130558 100
1.49959 0.1895 0.294847 100
1.49215 0.1882 -0.0777583 100
