-0.7761 0.6951 0.0182 8
-0.7417 0.6645 -0.2299 5
-0.7778 0.6972 0.0547 5
-0.8699 0.7797 -0.2271 4
-0.7684 0.6890 0.0903 15
-0.9735 0.8732 -0.2071 1
-0.7772 0.6973 0.1282 6
-1.3104 1.1761 -0.2162 1
-0.7952 0.7140 0.1693 1
-0.7991 0.7175 -0.0940 4
-0.8067 0.7248 -0.0568 7
-2.1305 1.9150 0.6614 31
-0.7673 0.6899 -0.0180 2
-2.1171 1.9043 0.7630 33
-0.6944 0.6261 -0.2505 3
-0.7499 0.6764 0.0176 1
-0.7220 0.6514 -0.2245 5
-0.7710 0.6959 0.0544 12
-0.8584 0.7748 -0.2248 4
-0.7630 0.6890 0.0899 21
-1.0027 0.9057 -0.2140 1
-0.7718 0.6974 0.1277 6
-1.2680 1.1461 -0.2099 1
-0.8337 0.7538 0.1780 1
-0.8010 0.7243 -0.0945 4
-0.7923 0.7169 -0.0560 5
-2.1209 1.9198 0.6605 32
-0.7767 0.7033 -0.0183 2
-2.1162 1.9168 0.7651 34
-0.6779 0.6156 -0.2454 4
-0.7226 0.6566 -0.2254 5
-0.7582 0.6892 0.0537 17
-0.8615 0.7831 -0.2263 4
-0.7636 0.6943 0.0903 21
-0.9791 0.8906 -0.2096 1
-0.7650 0.6961 0.1270 6
-1.2507 1.1385 -0.2077 2
-0.7843 0.7142 0.1680 1
-0.7926 0.7217 -0.0938 4
-0.7928 0.7224 -0.0562 5
-2.1171 1.9298 0.6614 31
-0.7595 0.6925 -0.0179 2
-2.1124 1.9268 0.7661 33
-0.6587 0.6023 -0.2391 4
-0.8204 0.7504 0.0194 1
-0.7145 0.6538 -0.2236 6
-0.7528 0.6891 0.0535 22
-0.8645 0.7914 -0.2278 4
-0.7685 0.7037 0.0912 20
-0.9934 0.9100 -0.2134 1
-0.7684 0.7041 0.1280 6
-1.2570 1.1522 -0.2094 3
-0.8284 0.7596 0.1780 1
-0.7974 0.7312 -0.0947 4
-0.7961 0.7305 -0.0566 7
-2.1190 1.9451 0.6641 33
-0.7644 0.7020 -0.0181 2
-2.1170 1.9446 0.7702 32
-0.6566 0.6046 -0.2391 4
-0.7780 0.7167 0.0185 5
-0.7237 0.6669 -0.2272 5
-0.7592 0.6999 0.0541 20
-0.8459 0.7798 -0.2236 2
-0.7573 0.6983 0.0901 21
-0.9438 0.8706 -0.2034 1
-0.7644 0.7054 0.1277 6
-1.2544 1.1580 -0.2096 4
-0.7851 0.7250 0.1693 1
-0.7875 0.7272 -0.0938 4
-0.7950 0.7347 -0.0567 7
-2.1150 1.9551 0.6650 33
-0.7664 0.7087 -0.0182 8
-2.1088 1.9507 0.7697 31
-0.6714 0.6226 -0.2454 4
-0.7623 0.7072 0.0182 12
-0.7185 0.6668 -0.2263 5
-0.7510 0.6969 0.0537 17
-0.8475 0.7867 -0.2248 4
-0.7504 0.6969 0.0896 21
-0.9610 0.8927 -0.2077 1
-0.7678 0.7135 0.1287 6
-1.2622 1.1729 -0.2116 4
-0.8232 0.7653 0.1780 1
-0.7806 0.7259 -0.0933 4
-0.7866 0.7320 -0.0563 7
-2.1171 1.9701 0.6677 31
-0.7757 0.7221 -0.0185 8
-2.1193 1.9735 0.7759 29
-0.6807 0.6354 -0.2495 3
-0.7644 0.7138 0.0183 12
-0.7163 0.6691 -0.2263 5
-0.7604 0.7103 0.0545 17
-0.8650 0.8083 -0.2301 2
-0.7554 0.7061 0.0905 18
-0.9378 0.8770 -0.2034 2
-0.7495 0.7011 0.1260 6
-1.2395 1.1595 -0.2084 3
-0.7918 0.7410 0.1718 1
-0.7782 0.7285 -0.0933 3
-0.7857 0.7360 -0.0564 7
-2.1262 1.9917 0.6726 29
-0.7675 0.7192 -0.0184 8
-2.1240 1.9911 0.7801 32
-0.6504 0.6112 -0.2391 4
-0.7591 0.7136 0.0182 5
-0.7112 0.6688 -0.2254 5
-0.7479 0.7033 0.0538 15
-0.8566 0.8058 -0.2286 2
-0.7530 0.7086 0.0905 20
-0.9335 0.8787 -0.2031 3
-0.7472 0.7036 0.1260 6
-1.0521 0.9907 -0.1774 4
-0.7894 0.7436 0.1718 1
-0.7091 0.6682 -0.0852 2
-0.7803 0.7358 -0.0562 7
-2.1182 1.9974 0.6722 30
-0.7724 0.7286 -0.0185 8
-2.1202 2.0008 0.7811 32
-0.6652 0.6293 -0.2454 4
-0.7567 0.7161 0.0182 1
-0.7232 0.6846 -0.2299 5
-0.7455 0.7057 0.0538 16
-0.8439 0.7992 -0.2259 2
-0.7608 0.7207 0.0917 16
-0.9191 0.8710 -0.2005 2
-0.7477 0.7088 0.1265 6
-0.9796 0.9287 -0.1657 15
-0.7697 0.7299 0.1680 1
-0.7213 0.6842 -0.0870 1
-0.7822 0.7425 -0.0565 7
-2.1200 2.0125 0.6749 34
-0.7540 0.7160 -0.0182 8
-2.1219 2.0158 0.7842 32
-0.6461 0.6157 -0.2391 4
-0.7613 0.7258 0.0184 2
-0.7150 0.6819 -0.2281 5
-0.7414 0.7072 0.0537 20
-0.8580 0.8185 -0.2305 2
-0.7423 0.7084 0.0898 16
-0.9316 0.8893 -0.2040 1
-0.7537 0.7198 0.1280 6
-0.9804 0.9365 -0.1665 24
-0.7412 0.7083 0.1624 1
-0.7490 0.7158 -0.0906 3
-0.7737 0.7399 -0.0561 7
-2.1263 2.0341 0.6794 33
-0.7527 0.7203 -0.0182 8
-2.1184 2.0279 0.7858 34
-0.6607 0.6340 -0.2454 4
-0.7574 0.7270 0.0183 8
-0.7070 0.6789 -0.2263 5
-0.7490 0.7195 0.0544 15
-0.8523 0.8188 -0.2297 2
-0.7413 0.7124 0.0899 15
-0.9456 0.9090 -0.2077 1
-0.7397 0.7114 0.1260 6
-0.9742 0.9372 -0.1660 33
-0.7501 0.7218 0.1649 1
-0.7609 0.7322 -0.0924 4
-0.7697 0.7412 -0.0560 5
-2.1290 2.0510 0.6825 37
-0.7473 0.7202 -0.0181 5
-2.1266 2.0500 0.7915 41
-0.6585 0.6363 -0.2454 4
-0.7491 0.7241 0.0182 12
-0.7074 0.6841 -0.2272 5
-0.7465 0.7221 0.0544 15
-0.8636 0.8354 -0.2336 2
-0.7402 0.7163 0.0901 16
-0.9509 0.9205 -0.2096 1
-0.7401 0.7167 0.1265 6
-0.9667 0.9365 -0.1653 26
-0.7674 0.7437 0.1693 1
-0.7783 0.7543 -0.0948 6
-0.7814 0.7578 -0.0570 1
-2.1512 2.0869 0.6919 53
-0.7462 0.7242 -0.0182 2
-2.1457 2.0830 0.8013 57
-0.6563 0.6386 -0.2454 4
-0.7537 0.7337 0.0184 15
-0.6883 0.6703 -0.2218 6
-0.7353 0.7163 0.0538 17
-0.8635 0.8411 -0.2343 2
-0.7406 0.7217 0.0905 16
-0.9392 0.9156 -0.2077 1
-0.7419 0.7235 0.1272 6
-0.9691 0.9454 -0.1662 12
-0.7592 0.7409 0.1680 1
-0.7700 0.7514 -0.0941 4
-0.7816 0.7633 -0.0573 1
-2.1495 2.0998 0.6937 57
-0.7637 0.7463 -0.0186 2
-2.1357 2.0878 0.8003 63
-0.6375 0.6247 -0.2391 4
-0.7568 0.7419 0.0185 13
-0.7054 0.6918 -0.2281 5
-0.7328 0.7189 0.0538 15
-0.8577 0.8414 -0.2336 2
-0.7437 0.7298 0.0912 16
-0.9445 0.9272 -0.2096 1
-0.7408 0.7274 0.1275 6
-0.9870 0.9696 -0.1699 13
-0.7735 0.7601 0.1718 1
-0.7716 0.7583 -0.0947 6
-0.7704 0.7576 -0.0566 5
-2.1338 2.0991 0.6910 57
-0.7426 0.7308 -0.0182 2
-2.1188 2.0857 0.7966 59
-0.6628 0.6540 -0.2495 3
-0.7514 0.7418 0.0184 13
-0.6919 0.6833 -0.2245 5
-0.7318 0.7229 0.0539 15
-0.8520 0.8416 -0.2328 2
-0.7313 0.7226 0.0899 12
-0.9609 0.9499 -0.2140 1
-0.7354 0.7272 0.1270 6
-0.9709 0.9605 -0.1677 17
-0.7652 0.7573 0.1705 1
-0.7619 0.7540 -0.0938 4
-0.7635 0.7561 -0.0563 7
-2.1140 2.0942 0.6870 53
-0.7486 0.7418 -0.0184 8
-2.0923 2.0741 0.7894 47
-0.6495 0.6455 -0.2454 4
-0.7445 0.7401 0.0183 13
-0.7006 0.6967 -0.2281 5
-0.7335 0.7296 0.0542 12
-0.8490 0.8446 -0.2328 2
-0.7273 0.7238 0.0898 12
-0.9212 0.9170 -0.2059 1
-0.7357 0.7326 0.1275 6
-0.9634 0.9597 -0.1670 30
-0.7486 0.7460 0.1674 1
-0.7579 0.7552 -0.0936 4
-0.7552 0.7531 -0.0559 5
-2.0474 2.0424 0.6677 41
-0.7502 0.7486 -0.0185 8
-2.0303 2.0268 0.7687 40
-0.6473 0.6477 -0.2454 4
-0.7448 0.7456 0.0184 11
-0.6871 0.6881 -0.2245 5
-0.7366 0.7379 0.0546 11
-0.8600 0.8615 -0.2366 2
-0.7248 0.7263 0.0898 10
-0.9180 0.9202 -0.2059 1
-0.7289 0.7309 0.1267 6
-0.9642 0.9672 -0.1677 34
-0.7488 0.7514 0.1680 1
-0.7510 0.7536 -0.0931 4
-0.7540 0.7571 -0.0560 5
-2.0334 2.0426 0.6654 40
-0.7434 0.7470 -0.0184 8
-2.0178 2.0284 0.7666 39
-0.6450 0.6500 -0.2454 4
-0.7450 0.7510 0.0185 10
-0.6710 0.6766 -0.2200 6
-0.7229 0.7289 0.0538 12
-0.8486 0.8561 -0.2343 2
-0.7293 0.7359 0.0906 13
-0.9453 0.9543 -0.2128 1
-0.7249 0.7321 0.1265 6
-0.9580 0.9678 -0.1672 28
-0.7630 0.7707 0.1718 1
-0.7596 0.7676 -0.0945 4
-0.7555 0.7640 -0.0563 5
-2.0153 2.0386 0.6618 40
-0.7606 0.7694 -0.0189 7
-2.0043 2.0282 0.7640 40
-0.6726 0.6825 -0.2567 3
-0.7453 0.7563 0.0185 10
-0.6865 0.6969 -0.2259 2
-0.7189 0.7300 0.0537 12
-0.8567 0.8702 -0.2374 2
-0.7281 0.7399 0.0908 12
-0.9117 0.9264 -0.2059 1
-0.7295 0.7415 0.1277 6
-0.9966 1.0134 -0.1745 30
-0.7353 0.7480 0.1661 1
-0.7443 0.7574 -0.0929 4
-0.7530 0.7665 -0.0563 5
-2.0003 2.0370 0.6591 40
-0.7355 0.7492 -0.0183 8
-1.9917 2.0297 0.7620 40
-0.6541 0.6682 -0.2505 3
-0.7469 0.7632 0.0186 8
-0.7413 0.7578 -0.2447 2
-0.7205 0.7368 0.0540 11
-0.8922 0.9124 -0.2481 2
-0.7173 0.7337 0.0898 10
-0.9388 0.9607 -0.2128 1
-0.7199 0.7370 0.1265 6
-0.9972 1.0211 -0.1752 28
-0.7327 0.7506 0.1661 1
-0.7446 0.7627 -0.0933 4
-0.7461 0.7649 -0.0560 5
-1.9918 2.0425 0.6587 42
-0.7272 0.7460 -0.0182 5
-1.9698 2.0214 0.7563 48
-0.6194 0.6372 -0.2381 4
-0.7247 0.7457 0.0182 8
-0.7251 0.7464 -0.2402 2
-0.7249 0.7465 0.0545 8
-0.8808 0.9070 -0.2458 2
-0.7203 0.7420 0.0905 10
-0.9217 0.9498 -0.2096 1
-0.7229 0.7452 0.1275 6
-0.9964 1.0275 -0.1757 24
-0.7328 0.7560 0.1668 1
-0.7405 0.7639 -0.0931 4
-0.7532 0.7775 -0.0567 3
-1.9820 2.0467 0.6578 57
-0.7413 0.7658 -0.0186 5
-1.9668 2.0324 0.7578 60
-0.6038 0.6255 -0.2329 5
-0.7207 0.7468 0.0181 7
-0.7252 0.7517 -0.2411 2
-0.7223 0.7490 0.0545 8
-0.8448 0.8763 -0.2366 2
-0.7177 0.7445 0.0905 8
-0.9321 0.9672 -0.2128 2
-0.7134 0.7406 0.1263 6
-0.9818 1.0195 -0.1738 22
-0.7329 0.7614 0.1674 1
-0.7308 0.7594 -0.0922 3
-0.7365 0.7659 -0.0557 3
-1.9748 2.0536 0.6578 49
-0.7303 0.7597 -0.0184 5
-1.9677 2.0476 0.7609 52
-0.5667 0.5914 -0.2195 5
-0.7276 0.7596 0.0184 7
-0.7386 0.7713 -0.2465 2
-0.7140 0.7459 0.0541 8
-0.8497 0.8879 -0.2389 2
-0.7163 0.7485 0.0906 7
-0.9463 0.9892 -0.2168 2
-0.7148 0.7475 0.1270 6
-0.9410 0.9844 -0.1672 16
-0.7356 0.7698 0.1686 1
-0.7363 0.7708 -0.0933 3
-0.7337 0.7686 -0.0557 1
-1.9727 2.0664 0.6596 66
-0.7331 0.7682 -0.0185 5
-1.9655 2.0604 0.7630 70
-0.5646 0.5935 -0.2195 5
-0.7248 0.7622 0.0184 6
-0.7089 0.7457 -0.2375 2
-0.7087 0.7455 0.0539 6
-0.8385 0.8824 -0.2366 2
-0.7232 0.7613 0.0919 8
-0.9508 1.0013 -0.2187 3
-0.7175 0.7558 0.1280 4
-0.9294 0.9790 -0.1657 26
-0.7302 0.7695 0.1680 1
-0.7336 0.7733 -0.0933 3
-0.7338 0.7740 -0.0559 1
-1.9695 2.0776 0.6609 89
-0.7249 0.7649 -0.0184 5
-1.9676 2.0771 0.7666 87
-0.6104 0.6459 -0.2381 4
-0.7319 0.7748 0.0186 7
-0.6984 0.7396 -0.2348 2
-0.7131 0.7551 0.0544 5
-0.8410 0.8908 -0.2381 2
-0.7056 0.7477 0.0899 6
-0.9516 1.0087 -0.2196 3
-0.7123 0.7553 0.1275 4
-0.9302 0.9864 -0.1665 35
-0.7168 0.7604 0.1655 1
-0.7256 0.7700 -0.0926 1
-0.7325 0.7779 -0.0560 1
-1.9692 2.0912 0.6632 76
-0.7182 0.7630 -0.0183 5
-1.9541 2.0765 0.7640 82
-0.6267 0.6676 -0.2454 4
-0.7116 0.7583 0.0182 6
-0.7093 0.7561 -0.2393 2
-0.7159 0.7634 0.0548 5
-0.8380 0.8936 -0.2381 2
-0.7004 0.7471 0.0896 7
-0.9374 1.0003 -0.2171 2
-0.7111 0.7591 0.1277 4
-0.9200 0.9824 -0.1653 37
-0.7060 0.7542 0.1636 1
-0.7080 0.7564 -0.0906 1
-0.7436 0.7949 -0.0570 1
-1.9566 2.0923 0.6614 64
-0.7306 0.7815 -0.0187 5
-1.9376 2.0735 0.7604 65
-0.6059 0.6500 -0.2381 4
-0.7171 0.7695 0.0184 5
-0.7252 0.7785 -0.2456 2
-0.7064 0.7586 0.0543 5
-0.8188 0.8793 -0.2336 2
-0.7046 0.7569 0.0905 5
-0.9231 0.9920 -0.2146 2
-0.6963 0.7485 0.1255 4
-0.9192 0.9885 -0.1657 27
-0.7088 0.7625 0.1649 1
-0.7122 0.7661 -0.0915 1
-0.7571 0.8151 -0.0583 1
-1.9413 2.0906 0.6587 62
-0.7061 0.7606 -0.0181 5
-1.9225 2.0717 0.7573 56
-0.5564 0.6011 -0.2195 5
-0.7212 0.7794 0.0185 5
-0.7146 0.7725 -0.2429 2
-0.6956 0.7523 0.0537 5
-0.8317 0.8995 -0.2381 2
-0.6992 0.7564 0.0901 5
-0.9143 0.9894 -0.2134 2
-0.6923 0.7495 0.1253 4
-0.9212 0.9975 -0.1667 23
-0.7142 0.7736 0.1668 1
-0.7338 0.7950 -0.0947 1
-0.7814 0.8471 -0.0604 1
-1.9235 2.0859 0.6551 62
-0.7156 0.7763 -0.0184 5
-1.9165 2.0798 0.7578 61
-0.6197 0.6742 -0.2454 4
-0.7171 0.7804 0.0185 5
-0.6987 0.7606 -0.2384 2
-0.6889 0.7503 0.0534 5
-0.8127 0.8850 -0.2336 2
-0.7046 0.7676 0.0912 5
-0.9189 1.0014 -0.2153 2
-0.7031 0.7665 0.1277 4
-0.9204 1.0037 -0.1672 17
-0.6848 0.7470 0.1605 1
-0.7310 0.7975 -0.0947 1
-1.9122 2.0883 0.6537 65
-0.7048 0.7700 -0.0182 2
-1.9014 2.0780 0.7547 57
-0.5991 0.6563 -0.2381 4
-0.7117 0.7799 0.0184 3
-0.7092 0.7775 -0.2429 2
-0.6957 0.7630 0.0541 4
-0.8043 0.8820 -0.2320 2
-0.6966 0.7642 0.0905 5
-0.9127 1.0016 -0.2146 2
-0.7018 0.7705 0.1280 3
-0.9342 1.0260 -0.1704 15
-0.7008 0.7699 0.1649 1
-0.7283 0.8001 -0.0947 1
-1.9010 2.0906 0.6524 64
-0.7142 0.7857 -0.0185 2
-1.8760 2.0646 0.7475 59
-0.5501 0.6069 -0.2195 5
-0.7036 0.7765 0.0183 3
-0.6934 0.7655 -0.2384 2
-0.6891 0.7610 0.0538 4
-0.8038 0.8877 -0.2328 2
-0.6939 0.7666 0.0905 3
-0.8747 0.9667 -0.2065 1
-0.6951 0.7685 0.1272 3
-0.9346 1.0336 -0.1711 9
-0.6981 0.7723 0.1649 1
-1.8898 2.0929 0.6510 67
-0.7034 0.7793 -0.0183 2
-1.8610 2.0625 0.7444 59
-0.6126 0.6806 -0.2454 4
-0.7022 0.7804 0.0183 3
-0.6907 0.7679 -0.2384 2
-0.6837 0.7604 0.0536 4
-0.8086 0.8993 -0.2351 2
-0.6912 0.7691 0.0905 3
-0.8582 0.9551 -0.2034 1
-0.6858 0.7635 0.1260 3
-0.9363 1.0428 -0.1721 2
-0.7033 0.7835 0.1668 1
-0.7226 0.8051 -0.0947 1
-1.8798 2.0966 0.6501 67
-0.7034 0.7848 -0.0184 2
-1.8564 2.0719 0.7454 59
-0.5922 0.6626 -0.2381 4
-0.6981 0.7814 0.0183 2
-0.6880 0.7703 -0.2384 2
-0.6704 0.7509 0.0528 2
-0.7976 0.8933 -0.2328 2
-0.6899 0.7729 0.0906 2
-0.8364 0.9374 -0.1990 1
-0.6871 0.7704 0.1267 3
-0.8811 0.9883 -0.1626 1
-0.6953 0.7801 0.1655 1
-1.8570 2.0857 0.6447 67
-0.7126 0.8006 -0.0187 2
-1.8440 2.0726 0.7433 60
-0.6078 0.6849 -0.2454 4
-0.6954 0.7838 0.0183 2
-0.6983 0.7873 -0.2429 2
-0.6719 0.7576 0.0531 2
-0.7867 0.8873 -0.2305 2
-0.6872 0.7754 0.0906 2
-0.8384 0.9463 -0.2002 1
-0.6949 0.7846 0.1287 3
-0.8461 0.9557 -0.1567 1
-0.6848 0.7735 0.1636 1
-0.7635 0.8632 -0.0604 1
-1.8419 2.0834 0.6420 65
-0.6861 0.7760 -0.0181 2
-1.8346 2.0758 0.7423 59
-0.6955 0.7891 0.0184 2
-0.6931 0.7867 -0.2420 2
-0.6745 0.7659 0.0535 2
-0.7732 0.8782 -0.2274 2
-0.6766 0.7688 0.0896 2
-0.8222 0.9342 -0.1971 1
-0.6897 0.7840 0.1282 3
-0.8377 0.9525 -0.1557 3
-0.7004 0.7967 0.1680 1
-0.7142 0.8126 -0.0947 1
-0.7263 0.8268 -0.0577 1
-1.8376 2.0924 0.6429 67
-0.7045 0.8025 -0.0186 2
-1.8107 2.0633 0.7356 55
-0.6312 0.7210 -0.2567 3
-0.7019 0.8021 0.0186 2
-0.6698 0.7656 -0.2348 2
-0.6863 0.7848 0.0546 2
-0.7858 0.8985 -0.2320 2
-0.6780 0.7755 0.0901 2
-0.8059 0.9222 -0.1940 2
-0.6909 0.7908 0.1289 3
-0.8344 0.9554 -0.1557 3
-0.6898 0.7902 0.1661 1
-0.6879 0.7880 -0.0915 1
-0.7103 0.8142 -0.0566 1
-1.8200 2.0871 0.6393 65
-0.6885 0.7899 -0.0183 2
-1.8048 2.0711 0.7361 57
-0.5830 0.6707 -0.2381 4
-0.6794 0.7819 0.0181 2
-0.6671 0.7680 -0.2348 2
-0.6692 0.7706 0.0535 1
-0.7801 0.8983 -0.2313 2
-0.6779 0.7809 0.0905 2
-0.7949 0.9161 -0.1921 3
-0.6751 0.7783 0.1265 3
-0.8167 0.9418 -0.1531 4
-0.6896 0.7956 0.1668 1
-0.6747 0.7783 -0.0901 1
-0.6892 0.7956 -0.0552 1
-1.8051 2.0846 0.6366 67
-0.6989 0.8074 -0.0186 2
-1.7925 2.0715 0.7340 57
-0.5983 0.6932 -0.2454 4
-0.6963 0.8070 0.0186 1
-0.6721 0.7791 -0.2375 2
-0.6743 0.7820 0.0541 1
-0.7897 0.9159 -0.2351 2
-0.6699 0.7772 0.0898 2
-0.7904 0.9173 -0.1918 5
-0.6879 0.7987 0.1294 1
-0.8069 0.9372 -0.1518 4
-0.6869 0.7980 0.1668 1
-0.6718 0.7808 -0.0901 1
-0.7098 0.8252 -0.0570 1
-1.7851 2.0761 0.6321 70
-0.6961 0.8098 -0.0186 2
-1.7827 2.0748 0.7330 56
-0.5782 0.6748 -0.2381 4
-0.6805 0.7942 0.0183 1
-0.6795 0.7933 -0.2411 2
-0.6586 0.7692 0.0531 1
-0.7685 0.8979 -0.2297 2
-0.6761 0.7903 0.0910 1
-0.8025 0.9382 -0.1955 6
-0.6851 0.8011 0.1294 1
-0.7921 0.9264 -0.1497 7
-0.6815 0.7974 0.1661 1
-0.7028 0.8225 -0.0947 1
-0.7016 0.8218 -0.0566 1
-1.7724 2.0767 0.6303 65
-0.6932 0.8122 -0.0186 2
-1.7730 2.0781 0.7319 56
-0.7035 0.8272 0.0190 1
-0.6892 0.8106 -0.2456 2
-0.6844 0.8050 0.0554 1
-0.7501 0.8826 -0.2252 2
-0.6695 0.7881 0.0905 1
-0.7851 0.9245 -0.1921 7
-0.6732 0.7930 0.1277 1
-0.7899 0.9308 -0.1499 10
-0.6813 0.8028 0.1668 1
-0.6818 0.8037 -0.0922 1
-0.6910 0.8151 -0.0560 1
-1.7626 2.0799 0.6294 68
-0.6904 0.8146 -0.0186 2
-1.7532 2.0695 0.7268 57
-0.5735 0.6788 -0.2381 4
-0.6878 0.8142 0.0186 1
-0.6890 0.8159 -0.2465 2
-0.6944 0.8226 0.0564 1
-0.7521 0.8912 -0.2267 2
-0.6745 0.7995 0.0915 1
-0.7706 0.9135 -0.1893 7
-0.6885 0.8164 0.1311 1
-0.7817 0.9274 -0.1489 9
-0.6683 0.7930 0.1643 1
-0.7073 0.8396 -0.0960 1
-0.7089 0.8418 -0.0577 1
-1.7557 2.0857 0.6294 65
-0.7004 0.8324 -0.0190 2
-1.7385 2.0668 0.7237 60
-0.5886 0.7015 -0.2454 4
-0.6747 0.8043 0.0183 1
-0.6811 0.8123 -0.2447 2
-0.7069 0.8434 0.0577 1
-0.7403 0.8832 -0.2240 2
-0.6744 0.8048 0.0919 1
-0.7636 0.9116 -0.1883 5
-0.6538 0.7808 0.1250 1
-0.7721 0.9225 -0.1477 6
-0.6807 0.8136 0.1680 1
-0.6585 0.7869 -0.0898 1
-0.6957 0.8320 -0.0568 1
-1.7409 2.0828 0.6267 65
-0.7026 0.8409 -0.0191 2
-1.7313 2.0728 0.7237 59
-0.5861 0.7035 -0.2454 4
-0.6847 0.8221 0.0187 1
-0.6708 0.8057 -0.2420 2
-0.6861 0.8244 0.0562 1
-0.7598 0.9129 -0.2309 2
-0.6843 0.8225 0.0936 1
-0.7554 0.9082 -0.1871 3
-0.6739 0.8105 0.1294 1
-0.7740 0.9313 -0.1487 4
-0.6880 0.8281 0.1705 1
-0.6990 0.8413 -0.0957 1
-0.6851 0.8252 -0.0562 1
-1.7199 2.0724 0.6218 64
-0.6818 0.8218 -0.0186 2
-1.7167 2.0699 0.7206 60
-0.5221 0.6311 -0.2195 5
-0.7022 0.8491 0.0192 1
-0.6581 0.7960 -0.2384 2
-0.6934 0.8391 0.0570 1
-0.7416 0.8974 -0.2263 2
-0.6941 0.8402 0.0953 1
-0.7522 0.9108 -0.1871 2
-0.6913 0.8374 0.1333 1
-0.7960 0.9646 -0.1536 3
-0.6725 0.8152 0.1674 1
-0.6884 0.8346 -0.0947 1
-0.7076 0.8584 -0.0583 1
-1.7090 2.0739 0.6204 65
-0.6789 0.8242 -0.0186 2
-1.7094 2.0759 0.7206 60
-0.5812 0.7076 -0.2454 4
-0.7018 0.8546 0.0193 1
-0.6825 0.8315 -0.2483 2
-0.6905 0.8415 0.0570 1
-0.7422 0.9046 -0.2274 2
-0.6608 0.8057 0.0912 1
-0.7540 0.9196 -0.1883 2
-0.6833 0.8336 0.1324 1
-0.8769 1.0702 -0.1699 2
-0.6922 0.8451 0.1730 1
-0.6855 0.8370 -0.0947 1
-0.7299 0.8918 -0.0604 1
-1.7030 2.0814 0.6209 64
-0.6761 0.8266 -0.0186 2
-1.6899 2.0669 0.7154 64
-0.6937 0.8509 0.0192 1
-0.6624 0.8127 -0.2420 2
-0.6877 0.8438 0.0570 1
-0.7440 0.9132 -0.2290 2
-0.6681 0.8203 0.0926 1
-0.7732 0.9498 -0.1940 1
-0.6654 0.8176 0.1294 1
-0.9082 1.1164 -0.1767 2
-0.6844 0.8412 0.1718 1
-0.6826 0.8393 -0.0947 1
-0.7268 0.8943 -0.0604 1
-1.6895 2.0797 0.6186 67
-1.6745 2.0620 0.7118 65
-0.5763 0.7116 -0.2454 4
-0.6909 0.8532 0.0192 1
-0.6621 0.8179 -0.2429 2
-0.6847 0.8462 0.0570 1
-0.7260 0.8975 -0.2244 2
-0.6652 0.8227 0.0926 1
-0.7701 0.9523 -0.1940 1
-0.6601 0.8167 0.1289 1
-0.9370 1.1596 -0.1830 2
-0.6864 0.8498 0.1730 1
-0.6797 0.8417 -0.0947 1
-0.7191 0.8905 0.2225 1
-0.7238 0.8967 -0.0604 1
-1.6826 2.0853 0.6186 65
-0.6704 0.8312 -0.0186 2
-1.6673 2.0678 0.7118 63
-0.7305 0.9086 0.0203 1
-0.6470 0.8050 -0.2384 2
-0.6993 0.8703 0.0585 1
-0.7181 0.8938 -0.2229 2
-0.6775 0.8435 0.0947 1
-0.6896 0.8592 0.1353 1
-0.9304 1.1597 -0.1826 1
-0.7032 0.8768 0.1780 1
-0.6767 0.8441 -0.0947 1
-0.7258 0.9053 0.2255 1
-0.7207 0.8993 -0.0604 1
-1.6656 2.0790 0.6150 67
-1.6577 2.0706 0.7107 66
-0.5713 0.7156 -0.2454 4
-0.7099 0.8892 0.0199 1
-0.6345 0.7951 -0.2348 2
-0.6614 0.8291 0.0556 1
-0.7344 0.9210 -0.2290 2
-0.6595 0.8273 0.0926 1
-0.6866 0.8616 0.1353 1
-0.9190 1.1536 -0.1811 1
-0.7002 0.8793 0.1780 1
-0.6738 0.8464 -0.0947 1
-0.6809 0.8557 0.2126 1
-0.7174 0.9019 -0.0604 1
-1.6507 2.0759 0.6123 70
-1.6420 2.0658 0.7071 68
-0.5856 0.7388 -0.2526 3
-0.7066 0.8918 0.0199 1
-0.6316 0.7974 -0.2348 2
-0.7378 0.9316 0.0623 1
-0.7385 0.9328 -0.2313 2
-0.6887 0.8702 0.0971 1
-0.6785 0.8579 0.1343 1
-0.9369 1.1850 -0.1855 3
-0.6971 0.8817 0.1780 1
-0.6708 0.8488 -0.0947 1
-0.6803 0.8611 0.2133 1
-0.7142 0.9044 -0.0604 1
-1.6410 2.0786 0.6114 70
-1.6240 2.0579 0.7024 63
-0.5065 0.6437 -0.2195 5
-0.6506 0.8271 -0.2429 2
-0.7231 0.9199 -0.2274 2
-0.6857 0.8726 0.0971 1
-0.8495 1.0810 -0.2178 1
-0.7198 0.9163 0.1431 1
-0.9317 1.1866 -0.1852 17
-0.6940 0.8841 0.1780 1
-0.6678 0.8511 -0.0947 1
-0.6726 0.8572 0.2118 1
-0.6940 0.8848 -0.0589 1
-1.6329 2.0825 0.6110 71
-1.6133 2.0590 0.7009 68
-0.5044 0.6454 -0.2195 5
-0.6381 0.8171 -0.2393 2
-0.7346 0.9409 -0.2320 2
-0.6828 0.8749 0.0971 1
-0.8311 1.0653 -0.2140 2
-0.7166 0.9189 0.1431 1
-0.9349 1.1992 -0.1867 37
-0.6909 0.8866 0.1780 1
-0.6332 0.8125 -0.0901 1
-0.6407 0.8224 0.2026 1
-0.6688 0.8588 -0.0570 3
-1.6256 2.0882 0.6110 71
-1.6025 2.0600 0.6993 63
-0.5614 0.7234 -0.2454 4
-0.6424 0.8285 -0.2420 2
-0.7265 0.9372 -0.2305 2
-0.6797 0.8772 0.0971 1
-0.8346 1.0776 -0.2159 2
-0.9259 1.1962 -0.1857 33
-0.6878 0.8890 0.1780 1
-0.6572 0.8493 -0.0940 1
-0.6762 0.8743 0.2149 1
-0.6511 0.8422 -0.0558 5
-1.6088 2.0815 0.6074 73
-1.5953 2.0656 0.6993 63
-0.6395 0.8308 -0.2420 2
-0.7256 0.9429 -0.2313 2
-0.6767 0.8796 0.0971 1
-0.8309 1.0805 -0.2159 2
-0.7102 0.9238 0.1431 1
-0.9241 1.2026 -0.1862 37
-0.6847 0.8914 0.1780 1
-0.6506 0.8469 -0.0934 3
-0.6469 0.8424 0.2065 1
-0.6531 0.8508 -0.0562 5
-1.5932 2.0763 0.6042 70
-1.5834 2.0650 0.6973 65
-0.5399 0.7059 -0.2381 4
-0.6366 0.8330 -0.2420 2
-0.7104 0.9298 -0.2274 2
-0.8319 1.0897 -0.2171 1
-0.9223 1.2089 -0.1867 36
-0.6816 0.8937 0.1780 1
-0.6343 0.8317 -0.0915 1
-0.6606 0.8665 0.2118 1
-0.6525 0.8562 -0.0564 5
-1.5871 2.0834 0.6047 73
-1.5692 2.0613 0.6942 63
-0.6149 0.8104 -0.2348 2
-0.6976 0.9198 -0.2244 2
-0.8114 1.0705 -0.2128 2
-1.6364 2.1597 0.3327 1
-0.9253 1.2216 -0.1882 36
-1.5704 2.0741 0.4120 1
-0.6362 0.8403 -0.0922 1
-1.5864 2.0961 0.5110 2
-0.6519 0.8617 -0.0566 5
-1.5728 2.0796 0.6020 73
-1.5550 2.0575 0.6910 58
-0.5512 0.7312 -0.2454 4
-0.6402 0.8499 -0.2456 2
-0.6968 0.9253 -0.2252 2
-1.5781 2.0964 0.2296 1
-0.7839 1.0418 -0.2065 1
-1.5882 2.1115 0.3244 3
-0.9198 1.2233 -0.1879 32
-1.5655 2.0828 0.4127 5
-0.6393 0.8505 -0.0931 1
-1.5520 2.0656 0.5022 14
-0.6513 0.8672 -0.0568 5
-1.5655 2.0851 0.6020 73
-1.5443 2.0583 0.6895 66
-0.5487 0.7331 -0.2454 4
-1.5788 2.1104 0.0460 1
-0.6185 0.8271 -0.2384 2
-1.5666 2.0956 0.1371 3
-0.7076 0.9466 -0.2297 2
-1.5683 2.0987 0.2292 9
-0.7862 1.0524 -0.2081 2
-1.5227 2.0391 0.3125 12
-0.9167 1.2281 -0.1882 31
-1.5299 2.0502 0.4052 16
-0.6482 0.8687 -0.0948 1
-1.5401 2.0647 0.5007 32
-0.6399 0.8582 -0.0561 3
-1.5466 2.0749 0.5975 74
-1.5831 2.1247 -0.0462 2
-1.5336 2.0590 0.6879 57
-0.5622 0.7568 -0.2526 3
-1.5440 2.0790 0.0452 10
-0.6249 0.8418 -0.2420 2
-1.5545 2.0946 0.1367 20
-0.6833 0.9207 -0.2229 2
-1.5242 2.0546 0.2238 23
-0.7790 1.0504 -0.2071 7
-0.9160 1.2361 -0.1889 32
-0.6796 0.9174 -0.0999 3
-1.5387 2.0779 0.5026 61
-0.6464 0.8733 -0.0569 3
-1.5370 2.0772 0.5966 73
-1.5780 2.1334 -0.0463 10
-1.5276 2.0659 0.6885 63
-0.4862 0.6592 -0.2195 5
-1.5047 2.0409 0.0443 17
-0.6220 0.8440 -0.2420 2
-0.7103 0.9642 -0.2328 2
-1.5099 2.0503 0.2228 32
-0.7870 1.0690 -0.2102 11
-1.5166 2.0609 0.3142 41
-0.9175 1.2472 -0.1901 30
-1.5167 2.0625 0.4055 58
-0.9042 1.2295 -0.1335 6
-1.5303 2.0817 0.5022 61
-0.9698 1.3197 -0.0858 5
-1.5229 2.0731 0.5939 76
-1.5623 2.1276 -0.0461 38
-1.5067 2.0526 0.6822 63
-1.4893 2.0348 0.0440 18
-0.6099 0.8336 -0.2384 2
-1.5268 2.0877 0.1356 52
-0.6954 0.9508 -0.2290 2
-1.5145 2.0716 0.2245 55
-0.7693 1.0526 -0.2065 12
-1.5200 2.0806 0.3164 69
-0.9120 1.2488 -0.1899 22
-1.5130 2.0725 0.4064 74
-0.9245 1.2665 -0.1372 18
-1.5056 2.0632 0.4965 59
-0.9699 1.3296 -0.0862 5
-1.5133 2.0753 0.5930 76
-1.5290 2.0975 -0.0453 37
-1.4972 2.0547 0.6812 60
-0.5225 0.7188 -0.2381 4
-1.4857 2.0449 0.0441 23
-0.6069 0.8357 -0.2384 2
-1.5242 2.0995 0.1360 69
-0.6990 0.9628 -0.2313 2
-1.5155 2.0882 0.2257 65
-0.7691 1.0601 -0.2074 12
-1.5057 2.0762 0.3149 57
-0.9228 1.2729 -0.1930 20
-1.5046 2.0762 0.4061 59
-0.9259 1.2777 -0.1381 22
-1.4984 2.0685 0.4965 73
-0.9559 1.3200 -0.0854 2
-1.5015 2.0742 0.5912 73
-1.5474 2.1385 -0.0461 68
-1.4878 2.0568 0.6802 63
-1.4785 2.0501 0.0441 32
-0.6040 0.8378 -0.2384 2
-1.5064 2.0902 0.1350 68
-0.6772 0.9397 -0.2252 2
-1.5082 2.0935 0.2257 64
-0.7654 1.0628 -0.2074 12
-1.4961 2.0783 0.3144 68
-0.9091 1.2632 -0.1911 16
-1.5031 2.0894 0.4077 68
-0.9145 1.2713 -0.1370 21
-1.4935 2.0769 0.4972 84
-1.4806 2.0605 0.5858 73
-1.5306 2.1308 -0.0458 73
-1.4783 2.0588 0.6791 61
-0.4769 0.6659 -0.2195 5
-1.4667 2.0487 0.0440 47
-0.6124 0.8557 -0.2429 2
-1.4936 2.0871 0.1345 71
-0.6671 0.9325 -0.2229 2
-1.4997 2.0971 0.2256 66
-0.7628 1.0670 -0.2077 12
-1.4889 2.0835 0.3144 72
-0.9152 1.2808 -0.1933 13
-1.4847 2.0783 0.4045 74
-0.9135 1.2793 -0.1375 21
-1.4840 2.0789 0.4965 80
-1.4942 2.0940 -0.1348 46
-1.4692 2.0590 0.5840 74
-1.5177 2.1278 -0.0456 80
-1.4670 2.0574 0.6771 61
-1.4634 2.0584 0.0441 76
-0.5893 0.8292 -0.2348 2
-1.4867 2.0920 0.1345 71
-0.6686 0.9411 -0.2244 2
-1.4812 2.0858 0.2238 72
-0.7638 1.0760 -0.2090 11
-1.4808 2.0868 0.3142 70
-0.9202 1.2967 -0.1952 11
-1.4778 2.0833 0.4045 70
-0.9081 1.2807 -0.1374 21
-1.4748 2.0806 0.4957 79
-1.4953 2.1104 -0.1356 80
-1.4669 2.0702 0.5858 78
-1.4933 2.1083 -0.0451 67
-1.4535 2.0528 0.6740 60
-1.4612 2.0698 0.0442 78
-0.6067 0.8598 -0.2429 2
-1.4782 2.0956 0.1344 74
-0.6654 0.9433 -0.2244 2
-1.4697 2.0842 0.2231 72
-0.7591 1.0769 -0.2087 11
-1.4693 2.0852 0.3132 77
-0.9111 1.2935 -0.1943 7
-1.4659 2.0819 0.4033 72
-0.9071 1.2888 -0.1379 21
-1.4566 2.0694 0.4919 82
-1.4849 2.1104 -0.1352 67
-1.4552 2.0690 0.5840 74
-1.4871 2.1152 -0.0451 74
-1.4396 2.0484 0.6709 61
-0.4701 0.6708 -0.2195 5
-1.4528 2.0733 0.0442 58
-0.5926 0.8459 -0.2384 2
-1.4663 2.0942 0.1340 68
-0.6687 0.9554 -0.2267 2
-1.4620 2.0896 0.2231 72
-0.7518 1.0748 -0.2077 11
-1.4506 2.0740 0.3108 68
-0.9066 1.2966 -0.1943 3
-1.4587 2.0870 0.4033 74
-0.9151 1.3099 -0.1398 20
-1.4445 2.0683 0.4904 79
-1.4726 2.1093 -0.1348 68
-1.4431 2.0679 0.5822 73
-1.4740 2.1121 -0.0450 69
-1.4369 2.0597 0.6729 60
-0.5229 0.7517 -0.2454 4
-1.4418 2.0737 0.0441 55
-0.6006 0.8641 -0.2429 2
-1.4484 2.0848 0.1330 71
-0.6609 0.9513 -0.2252 2
-1.4593 2.1012 0.2238 70
-0.7570 1.0904 -0.2102 10
-1.4362 2.0695 0.3093 70
-0.9075 1.3081 -0.1955 5
-1.4487 2.0891 0.4027 74
-0.9174 1.3229 -0.1408 20
-1.4373 2.0733 0.4904 77
-1.4652 2.1144 -0.1348 66
-1.4270 2.0601 0.5786 71
-1.4662 2.1175 -0.0450 71
-1.4271 2.0618 0.6719 61
-0.4654 0.6741 -0.2195 5
-1.4209 2.0589 0.0437 60
-0.5776 0.8373 -0.2348 2
-1.4366 2.0832 0.1326 71
-0.6620 0.9600 -0.2267 2
-1.4474 2.0997 0.2231 74
-0.7499 1.0882 -0.2093 10
-1.4324 2.0795 0.3100 71
-0.9085 1.3194 -0.1967 6
-1.4269 2.0730 0.3986 78
-0.9094 1.3212 -0.1403 19
-1.4300 2.0783 0.4904 77
-1.4555 2.1162 -0.1346 64
-1.4176 2.0619 0.5777 73
-1.4486 2.1078 -0.0446 63
-1.4177 2.0636 0.6709 63
-0.5176 0.7554 -0.2454 4
-1.4160 2.0672 0.0437 57
-0.5945 0.8683 -0.2429 2
-1.4327 2.0932 0.1329 74
-0.6520 0.9526 -0.2244 2
-1.4266 2.0850 0.2210 74
-0.7472 1.0924 -0.2096 10
-1.4217 2.0795 0.3093 67
-0.9050 1.3242 -0.1969 5
-1.4163 2.0731 0.3977 72
-0.9059 1.3260 -0.1405 16
-1.4161 2.0736 0.4881 80
-1.4459 2.1180 -0.1344 64
-1.4049 2.0588 0.5754 70
-1.4345 2.1029 -0.0444 65
-1.4040 2.0590 0.6678 76
-0.4998 0.7348 -0.2381 4
-1.3952 2.0523 0.0433 61
-0.5805 0.8542 -0.2384 2
-1.4220 2.0932 0.1326 71
-0.6443 0.9484 -0.2229 2
-1.4148 2.0834 0.2203 74
-0.7345 1.0820 -0.2071 13
-1.4134 2.0828 0.3091 73
-0.9082 1.3389 -0.1986 3
-1.4068 2.0748 0.3970 72
-0.9012 1.3291 -0.1405 12
-1.4022 2.0688 0.4858 77
-1.4318 2.1131 -0.1338 64
-1.4032 2.0717 0.5777 74
-1.4272 2.1079 -0.0444 65
-1.3946 2.0606 0.6667 74
-0.5123 0.7590 -0.2454 4
-0.5884 0.8724 -0.2429 2
-1.4147 2.0981 0.1326 71
-0.6585 0.9767 -0.2290 2
-1.4075 2.0883 0.2203 74
-0.7252 1.0763 -0.2056 16
-1.3972 2.0746 0.3071 71
-0.8980 1.3338 -0.1974 3
-1.3985 2.0780 0.3967 76
-1.3928 2.0704 0.4850 77
-1.4177 2.1082 -0.1331 64
-1.3872 2.0637 0.5741 74
-1.4209 2.1145 -0.0445 71
-1.3896 2.0687 0.6678 72
-0.5097 0.7608 -0.2454 4
-1.3575 2.0271 0.0426 39
-0.5659 0.8453 -0.2348 2
-1.3962 2.0865 0.1316 71
-0.6508 0.9724 -0.2274 2
-1.3980 2.0899 0.2200 72
-0.7313 1.0936 -0.2084 18
-1.3822 2.0679 0.3054 68
-0.9242 1.3832 -0.2043 4
-1.3901 2.0812 0.3964 72
-1.3856 2.0752 0.4850 80
-1.3915 2.0849 -0.1314 37
-1.3757 2.0620 0.5723 78
-1.4124 2.1178 -0.0444 65
-1.3759 2.0639 0.6646 76
-1.3759 2.0701 0.0434 6
-0.5716 0.8603 -0.2384 2
-1.3849 2.0844 0.1312 71
-0.6430 0.9682 -0.2259 2
-1.3907 2.0948 0.2200 74
-0.7220 1.0879 -0.2068 21
-1.3794 2.0793 0.3064 68
-1.3747 2.0729 -0.3054 12
-1.3767 2.0760 0.3945 74
-1.3992 2.1107 -0.2215 53
-1.3762 2.0768 0.4843 73
-1.3963 2.1080 -0.1325 58
-1.3653 2.0619 0.5709 68
-1.3966 2.1092 -0.0442 65
-1.3669 2.0652 0.6636 76
-1.3525 2.0496 0.0429 16
-0.5601 0.8491 -0.2348 2
-1.3787 2.0909 0.1313 74
-0.6310 0.9573 -0.2229 2
-1.3724 2.0830 0.2182 74
-0.7195 1.0920 -0.2071 18
-1.3692 2.0789 0.3056 62
-1.3623 2.0692 -0.3042 12
-1.3618 2.0692 0.3923 78
-1.3940 2.1189 -0.2219 80
-1.3671 2.0781 0.4835 77
-1.3784 2.0959 -0.1315 42
-1.3595 2.0681 0.5714 71
-1.3837 2.1057 -0.0440 67
-1.3491 2.0538 0.6584 76
-1.3344 2.0376 0.0425 39
-0.5678 0.8674 -0.2393 2
-1.3692 2.0924 0.1310 68
-0.6515 0.9955 -0.2313 2
-1.3612 2.0809 0.2175 74
-0.7113 1.0879 -0.2059 8
-1.3641 2.0870 0.3061 72
-1.3507 2.0673 -0.3032 14
-1.3546 2.0740 0.3923 76
-1.3691 2.0971 -0.2191 39
-1.3534 2.0730 0.4812 79
-1.3645 2.0907 -0.1308 38
-1.3491 2.0679 0.5700 70
-1.3709 2.1021 -0.0438 44
-1.3356 2.0488 0.6553 76
-0.4464 0.6868 -0.2195 5
-1.3360 2.0556 0.0428 27
-0.5542 0.8530 -0.2348 2
-1.3586 2.0921 0.1307 71
-0.6414 0.9880 -0.2290 2
-1.3535 2.0858 0.2175 74
-0.6944 1.0706 -0.2021 6
-1.3471 2.0768 0.3039 67
-1.3543 2.0887 -0.3056 10
-1.3473 2.0787 0.3923 78
-1.3661 2.1085 -0.2198 50
-1.3415 2.0713 0.4797 80
-1.3069 2.0186 -0.1260 35
-1.3394 2.0696 0.5691 70
-1.3657 2.1102 -0.0439 70
-1.3306 2.0567 0.6564 76
-1.3154 2.0404 0.0424 42
-0.5510 0.8551 -0.2348 2
-1.3445 2.0870 0.1301 71
-0.6273 0.9738 -0.2252 2
-1.3462 2.0905 0.2175 70
-0.6832 1.0614 -0.1999 16
-1.3331 2.0717 0.3025 65
-1.3305 2.0686 -0.3020 12
-1.3354 2.0769 0.3911 76
-1.2930 2.0110 -0.2092 36
-1.3364 2.0793 0.4805 79
-1.3085 2.0366 -0.1269 36
-1.3248 2.0627 0.5660 74
-1.3569 2.1136 -0.0438 71
-1.3188 2.0551 0.6543 74
-1.3126 2.0517 0.0425 55
-0.5649 0.8832 -0.2420 2
-1.3307 2.0816 0.1295 65
-0.6218 0.9726 -0.2244 2
-1.3325 2.0852 0.2165 74
-0.6763 1.0588 -0.1990 27
-1.3290 2.0813 0.3032 70
-1.3212 2.0698 -0.3015 4
-1.3218 2.0716 0.3892 78
-1.3021 2.0407 -0.2118 35
-1.3249 2.0773 0.4789 80
-1.3497 2.1169 -0.1316 73
-1.3155 2.0641 0.5651 74
-1.3387 2.1014 -0.0435 71
-1.3117 2.0597 0.6543 76
-0.4391 0.6914 -0.2195 5
-1.3065 2.0579 0.0425 61
-0.5534 0.8720 -0.2384 2
-1.3224 2.0845 0.1294 62
-0.6142 0.9682 -0.2229 2
-1.3188 2.0797 0.2154 72
-0.6811 1.0745 -0.2015 27
-1.3207 2.0843 0.3030 65
-1.3097 2.0677 -0.3005 2
-1.3103 2.0695 0.3880 78
-1.3344 2.1076 -0.2182 64
-1.3198 2.0853 0.4797 77
-1.3359 2.1115 -0.1309 72
-1.3083 2.0686 0.5651 74
-1.3335 2.1095 -0.0436 71
-1.2921 2.0446 0.6481 72
-1.2908 2.0489 0.0423 64
-0.5317 0.8443 -0.2303 2
-1.3151 2.0892 0.1294 68
-0.6317 1.0035 -0.2305 2
-1.3073 2.0775 0.2148 72
-0.6731 1.0701 -0.2002 22
-1.3071 2.0788 0.3015 66
-1.3046 2.0757 -0.3010 1
-1.3020 2.0724 0.3876 72
-1.2857 2.0464 -0.2114 45
-1.3041 2.0765 0.4766 82
-1.3285 2.1161 -0.1309 74
-1.2990 2.0699 0.5642 76
-1.3230 2.1090 -0.0435 74
-1.2849 2.0491 0.6481 71
-----------Received PointCloud with 11155 points-----------
x      y       z    intens
0.6488 -0.5854 0.0153 45
0.6346 -0.5728 0.0448 38
0.6328 -0.5716 0.0746 44
0.6509 -0.5884 0.1077 39
0.6418 -0.5803 0.1370 43
0.6391 -0.5783 0.1675 49
0.6278 -0.5683 -0.0444 13
1.0242 -0.9274 0.3190 7
0.6315 -0.5718 -0.0149 21
0.8748 -0.7924 0.3163 3
0.6498 -0.5902 0.0153 40
0.6414 -0.5830 0.0454 34
0.6367 -0.5792 0.0753 44
0.6490 -0.5905 0.1077 50
0.6368 -0.5799 0.1364 50
0.6386 -0.5817 0.1679 52
0.6289 -0.5731 -0.0446 13
1.0254 -0.9347 0.3203 7
0.6487 -0.5915 -0.0153 33
0.8464 -0.7720 0.3070 3
0.6463 -0.5912 0.0153 48
0.6305 -0.5772 0.0448 49
0.6480 -0.5934 0.0769 66
0.6440 -0.5901 0.1072 71
0.6566 -0.6021 0.1411 52
0.6322 -0.5799 0.1668 71
0.6387 -0.5861 -0.0454 16
1.0193 -0.9356 0.3194 7
0.6451 -0.5924 -0.0153 41
0.8337 -0.7658 0.3033 5
0.6442 -0.5934 0.0153 63
0.6315 -0.5821 0.0450 49
0.6518 -0.6010 0.0776 73
0.6507 -0.6004 0.1087 56
0.6618 -0.6111 0.1427 47
0.6461 -0.5968 0.1710 60
0.6454 -0.5964 -0.0461 11
1.0074 -0.9313 0.3167 6
0.6636 -0.6137 -0.0158 31
0.8268 -0.7648 0.3018 9
0.6788 -0.6297 0.0162 40
0.6690 -0.6210 0.0478 40
0.6877 -0.6386 0.0821 52
0.6878 -0.6392 0.1153 60
0.6828 -0.6349 0.1477 49
0.6842 -0.6365 0.1817 22
0.6872 -0.6395 -0.0492 14
1.0142 -0.9441 0.3199 6
0.6820 -0.6350 -0.0163 42
0.8255 -0.7690 0.3023 11
0.6839 -0.6389 0.0163 55
0.6814 -0.6369 0.0489 68
0.6780 -0.6343 0.0812 70
0.6870 -0.6429 0.1155 65
0.6834 -0.6400 0.1483 49
0.6934 -0.6497 0.1847 29
0.6936 -0.6502 -0.0498 18
1.0178 -0.9544 0.3221 5
0.6841 -0.6415 -0.0164 42
0.8355 -0.7838 0.3070 13
0.6815 -0.6414 0.0163 70
0.6791 -0.6393 0.0489 54
0.6816 -0.6421 0.0819 63
0.6890 -0.6495 0.1163 57
0.6941 -0.6546 0.1511 59
0.6911 -0.6522 0.1847 29
0.6899 -0.6512 -0.0497 18
1.0187 -0.9620 0.3235 4
0.6804 -0.6425 -0.0163 38
0.8398 -0.7933 0.3095 13
0.6823 -0.6464 0.0164 65
0.6827 -0.6472 0.0493 50
0.6895 -0.6541 0.0831 54
0.6854 -0.6504 0.1160 50
0.7019 -0.6665 0.1533 43
0.6846 -0.6504 0.1836 27
0.6848 -0.6508 -0.0495 16
1.0155 -0.9654 0.3235 4
0.6912 -0.6573 -0.0166 26
0.8552 -0.8136 0.3163 11
0.6931 -0.6612 0.0167 50
0.6776 -0.6468 0.0491 42
0.6945 -0.6632 0.0840 45
0.6846 -0.6542 0.1163 42
0.6867 -0.6567 0.1505 40
0.6923 -0.6623 0.1862 21
0.6825 -0.6532 -0.0495 11
1.0009 -0.9581 0.3199 4
0.6889 -0.6597 -0.0166 29
0.8649 -0.8286 0.3209 11
0.6951 -0.6677 0.0168 40
0.6739 -0.6478 0.0490 40
0.6951 -0.6684 0.0844 45
0.6937 -0.6676 0.1182 38
0.6915 -0.6659 0.1521 38
0.6900 -0.6647 0.1862 12
0.6889 -0.6638 -0.0501 10
0.9807 -0.9454 0.3145 4
0.6895 -0.6649 -0.0167 32
0.8745 -0.8436 0.3256 11
0.6899 -0.6674 0.0168 63
0.6874 -0.6654 0.0501 71
0.6827 -0.6611 0.0831 68
0.6942 -0.6728 0.1187 64
0.6807 -0.6601 0.1502 55
1.0526 -1.0211 0.2851 4
0.6894 -0.6690 -0.0503 20
0.9746 -0.9461 0.3136 3
0.7087 -0.6882 -0.0172 39
0.9035 -0.8777 0.3375 12
0.6904 -0.6726 0.0168 73
0.6908 -0.6734 0.0506 64
0.7061 -0.6886 0.0863 48
0.7246 -0.7071 0.1243 36
0.7179 -0.7011 0.1589 40
1.1726 -1.1455 0.3187 7
0.7128 -0.6966 -0.0522 9
0.9434 -0.9222 0.3046 4
0.7220 -0.7060 -0.0176 35
0.9667 -0.9456 0.3623 16
0.7323 -0.7184 0.0179 48
0.7299 -0.7162 0.0536 48
0.7392 -0.7259 0.0906 56
0.7292 -0.7166 0.1255 51
0.7452 -0.7326 0.1655 55
0.7543 -0.7418 -0.0926 1
1.1784 -1.1593 0.3213 10
0.7232 -0.7117 -0.0532 21
0.9263 -0.9119 0.3001 9
0.7453 -0.7337 -0.0183 49
1.0117 -0.9963 0.3805 19
0.7399 -0.7306 0.0182 55
0.7203 -0.7118 0.0531 50
0.7452 -0.7369 0.0917 56
0.7381 -0.7301 0.1275 48
0.7356 -0.7282 0.1639 56
1.1844 -1.1728 0.3240 20
0.7307 -0.7239 -0.0539 15
0.9233 -0.9149 0.3001 12
0.7285 -0.7222 -0.0179 41
1.0439 -1.0352 0.3939 22
0.7402 -0.7360 0.0182 52
0.7221 -0.7184 0.0534 46
0.7357 -0.7323 0.0908 50
0.7468 -0.7439 0.1294 43
0.7304 -0.7279 0.1633 53
1.1747 -1.1714 0.3225 33
0.7268 -0.7250 -0.0538 14
0.9380 -0.9360 0.3059 14
0.7233 -0.7218 -0.0178 38
1.0405 -1.0386 0.3939 22
0.7462 -0.7470 0.0184 45
0.7309 -0.7322 0.0542 39
0.7289 -0.7307 0.0903 41
0.7471 -0.7492 0.1299 33
0.7376 -0.7402 0.1655 47
0.7467 -0.7495 -0.0926 1
1.1847 -1.1892 0.3263 19
0.7427 -0.7458 -0.0552 14
0.9610 -0.9654 0.3145 13
0.7377 -0.7413 -0.0183 35
1.0532 -1.0587 0.4001 22
0.7408 -0.7467 0.0184 46
0.7354 -0.7418 0.0547 45
0.7377 -0.7444 0.0917 51
0.7403 -0.7476 0.1292 54
0.7434 -0.7512 0.1674 55
0.7442 -0.7520 -0.0926 1
1.1874 -1.2003 0.3282 16
0.7317 -0.7399 -0.0545 17
0.9809 -0.9923 0.3221 12
0.7421 -0.7510 -0.0184 46
1.0617 -1.0747 0.4048 21
0.7368 -0.7479 0.0183 61
0.7286 -0.7401 0.0544 66
0.7435 -0.7555 0.0927 68
0.7405 -0.7530 0.1297 52
0.7518 -0.7651 0.1699 61
1.1818 -1.2031 0.3278 19
0.9911 -1.0096 0.3266 10
0.7619 -0.7764 -0.0190 42
1.0945 -1.1157 0.4188 17
0.7677 -0.7848 0.0192 48
0.7525 -0.7698 0.0564 53
0.7770 -0.7951 0.0973 60
0.7822 -0.8010 0.1375 60
0.7905 -0.8101 0.1793 48
1.1790 -1.2086 0.3282 19
1.0148 -1.0410 0.3356 12
0.7802 -0.8006 -0.0195 42
1.1216 -1.1513 0.4307 18
0.7942 -0.8176 0.0199 66
0.7804 -0.8040 0.0587 82
0.7853 -0.8093 0.0987 65
0.7932 -0.8180 0.1399 58
0.7891 -0.8143 0.1796 56
1.1789 -1.2169 0.3293 14
1.1033 -1.1397 0.3662 17
0.7774 -0.8033 -0.0195 42
1.1525 -1.1913 0.4441 25
0.7886 -0.8175 0.0198 57
0.7762 -0.8052 0.0586 56
0.7825 -0.8120 0.0987 60
0.7986 -0.8293 0.1414 58
0.7944 -0.8255 0.1815 52
1.1569 -1.2026 0.3244 8
1.1506 -1.1970 0.3833 28
0.7842 -0.8161 -0.0198 42
1.1751 -1.2232 0.4545 49
0.7885 -0.8231 0.0199 55
0.7900 -0.8253 0.0599 66
0.7879 -0.8234 0.0997 67
0.7930 -0.8292 0.1409 76
0.8666 -0.9069 0.1987 84
1.0998 -1.1513 0.3095 6
1.1909 -1.2475 0.3982 53
0.7814 -0.8188 -0.0198 44
1.1894 -1.2469 0.4617 81
0.7911 -0.8316 0.0200 81
0.7899 -0.8309 0.0601 89
0.7851 -0.8261 0.0997 67
0.9828 -1.0350 0.1752 55
1.2034 -1.2681 0.2769 79
1.0782 -1.1366 0.3045 9
1.1892 -1.2545 0.3991 86
0.8212 -0.8665 -0.0208 65
1.1970 -1.2636 0.4664 90
1.1727 -1.2414 0.0298 68
1.1530 -1.2214 0.0880 76
1.1951 -1.2665 0.1523 80
1.1998 -1.2724 0.2147 91
1.2017 -1.2752 0.2775 95
1.0971 -1.1647 0.3110 12
1.1901 -1.2643 0.4009 100
1.2032 -1.2786 -0.0306 70
1.1953 -1.2706 0.4674 92
1.2039 -1.2834 0.0307 87
1.1952 -1.2750 0.0916 100
1.1948 -1.2750 0.1529 84
1.1995 -1.2809 0.2155 100
1.1932 -1.2750 0.2766 99
1.2456 -1.3311 -0.1595 1
1.1427 -1.2215 0.3251 20
1.1897 -1.2727 0.4022 100
1.1960 -1.2799 -0.0306 100
1.1856 -1.2691 0.4654 90
1.1954 -1.2832 0.0306 95
1.1812 -1.2689 0.0909 100
1.1876 -1.2762 0.1525 84
1.1977 -1.2880 0.2160 100
1.1900 -1.2806 0.2769 95
1.1922 -1.2829 -0.1532 1
1.1772 -1.2672 0.3362 52
1.1839 -1.2754 0.4018 100
1.1834 -1.2753 -0.0304 92
1.1759 -1.2676 0.4633 92
1.1827 -1.2786 0.0304 99
1.1838 -1.2802 0.0914 100
1.1832 -1.2804 0.1525 87
1.1824 -1.2805 0.2140 100
1.1858 -1.2846 0.2769 95
1.1661 -1.2641 0.3343 70
1.1834 -1.2838 0.4031 100
1.1791 -1.2792 -0.0304 81
1.1690 -1.2686 0.4623 92
1.1839 -1.2884 0.0305 99
1.1780 -1.2828 0.0913 100
1.1868 -1.2933 0.1536 87
1.1755 -1.2815 0.2135 100
1.1866 -1.2945 0.2781 93
1.1738 -1.2810 0.3377 83
1.1739 -1.2820 0.4013 100
1.1787 -1.2877 -0.0305 83
1.1685 -1.2770 0.4638 95
1.1794 -1.2925 0.0305 93
1.1654 -1.2781 0.0906 100
1.1784 -1.2928 0.1530 78
1.1723 -1.2870 0.2138 100
1.1741 -1.2899 0.2763 95
1.1773 -1.2938 0.3400 99
1.1603 -1.2760 0.3982 100
1.1675 -1.2844 -0.0303 81
1.1679 -1.2854 0.4654 92
1.1776 -1.2996 0.0306 91
1.1609 -1.2821 0.0906 100
1.1686 -1.2910 0.1523 81
1.1665 -1.2896 0.2135 100
1.1643 -1.2881 0.2750 95
1.1793 -1.3052 0.3419 100
1.1597 -1.2844 0.3995 100
1.1603 -1.2855 -0.0302 85
1.1609 -1.2866 0.4643 89
1.1677 -1.2977 0.0305 97
1.1618 -1.2921 0.0911 100
1.1654 -1.2966 0.1525 87
1.1686 -1.3011 0.2147 100
1.1651 -1.2981 0.2763 95
1.1669 -1.3005 0.3396 96
1.1513 -1.2841 0.3982 58
1.1572 -1.2910 -0.0303 71
1.1564 -1.2906 0.4643 87
1.1631 -1.3018 0.0305 93
1.1586 -1.2976 0.0912 100
1.1609 -1.3006 0.1525 84
1.1628 -1.3037 0.2145 100
1.1606 -1.3021 0.2763 95
1.1323 -1.2709 0.3309 51
1.1235 -1.2619 0.3901 66
1.1553 -1.2981 -0.0303 75
1.1275 -1.2672 0.4545 51
1.1612 -1.3089 0.0305 97
1.1514 -1.2987 0.0910 100
1.1563 -1.3047 0.1525 84
1.1543 -1.3033 0.2138 100
1.1626 -1.3136 0.2778 99
1.1201 -1.2660 0.3286 73
1.1113 -1.2570 0.3874 83
1.1508 -1.3021 -0.0303 72
1.1102 -1.2567 0.4493 68
1.1540 -1.3099 0.0305 97
1.1390 -1.2937 0.0903 100
1.1544 -1.3117 0.1529 84
1.1471 -1.3043 0.2133 100
1.1501 -1.3087 0.2760 99
1.1156 -1.2699 0.3286 82
1.0992 -1.2521 0.3847 78
1.1436 -1.3031 -0.0303 74
1.1160 -1.2721 0.4535 71
1.1547 -1.3199 0.0306 91
1.1357 -1.2992 0.0904 100
1.1472 -1.3127 0.1525 87
1.1517 -1.3188 0.2150 100
1.1495 -1.3172 0.2769 100
1.1202 -1.2842 0.3312 87
1.0974 -1.2589 0.3856 83
1.1364 -1.3041 -0.0302 81
1.1014 -1.2644 0.4493 80
1.1448 -1.3179 0.0305 97
1.1312 -1.3031 0.0904 100
1.1374 -1.3107 0.1518 87
1.1444 -1.3198 0.2145 100
1.1500 -1.3272 0.2781 100
1.1042 -1.2747 0.3278 86
1.0905 -1.2598 0.3847 81
1.1332 -1.3095 -0.0302 75
1.0894 -1.2595 0.4462 80
1.1350 -1.3159 0.0303 93
1.1371 -1.3192 0.0913 100
1.1302 -1.3116 0.1515 87
1.1372 -1.3208 0.2140 100
1.1454 -1.3312 0.2781 100
1.0972 -1.2756 0.3270 84
1.0950 -1.2739 0.3878 87
1.1338 -1.3195 -0.0304 70
1.0901 -1.2691 0.4483 78
1.1330 -1.3228 0.0304 95
1.1234 -1.3125 0.0905 100
1.1295 -1.3201 0.1520 81
1.1275 -1.3187 0.2130 100
1.1433 -1.3382 0.2788 100
1.0953 -1.2824 0.3278 84
1.0880 -1.2748 0.3869 85
1.1279 -1.3220 -0.0303 72
1.0831 -1.2700 0.4472 84
1.1310 -1.3298 0.0305 99
1.1113 -1.3071 0.0899 100
1.1300 -1.3301 0.1527 81
1.1229 -1.3226 0.2130 100
1.1363 -1.3389 0.2781 100
1.0933 -1.2892 0.3286 86
1.0747 -1.2681 0.3838 81
1.1235 -1.3257 -0.0303 71
1.0839 -1.2794 0.4493 78
1.1253 -1.3321 0.0304 99
1.1093 -1.3140 0.0901 100
1.1215 -1.3295 0.1522 87
1.1197 -1.3279 0.2133 100
1.1240 -1.3338 0.2763 100
1.0941 -1.2988 0.3301 86
1.0768 -1.2792 0.3860 85
1.1111 -1.3204 -0.0301 79
1.0745 -1.2773 0.4472 76
1.1219 -1.3375 0.0305 99
1.1072 -1.3210 0.0903 100
1.1094 -1.3240 0.1511 87
1.1215 -1.3394 0.2145 100
1.1219 -1.3408 0.2769 100
1.0845 -1.2966 0.3286 84
1.0698 -1.2799 0.3851 85
1.1116 -1.3304 -0.0303 71
1.0650 -1.2751 0.4452 80
1.1070 -1.3291 0.0302 97
1.1077 -1.3310 0.0908 100
1.1099 -1.3340 0.1518 84
1.1028 -1.3265 0.2118 100
1.1197 -1.3477 0.2775 100
1.0775 -1.2974 0.3278 84
1.0678 -1.2866 0.3860 85
1.1044 -1.3312 -0.0302 81
1.0680 -1.2878 0.4483 80
1.1074 -1.3391 0.0303 93
1.0980 -1.3287 0.0903 100
1.1078 -1.3410 0.1522 84
1.0982 -1.3303 0.2118 100
1.1150 -1.3516 0.2775 100
1.0704 -1.2981 0.3270 80
1.0608 -1.2873 0.3851 85
1.1036 -1.3397 -0.0303 70
1.0610 -1.2885 0.4472 80
1.1028 -1.3430 0.0303 97
1.0845 -1.3217 0.0896 100
1.1006 -1.3417 0.1518 87
1.1024 -1.3449 0.2135 100
1.1103 -1.3555 0.2775 100
1.0684 -1.3048 0.3278 84
1.0551 -1.2895 0.3847 78
1.0951 -1.3389 -0.0302 79
1.0638 -1.3012 0.4503 76
1.1031 -1.3530 0.0305 95
1.0849 -1.3316 0.0900 100
1.0959 -1.3456 0.1518 87
1.0964 -1.3472 0.2133 100
1.1005 -1.3532 0.2763 100
1.0663 -1.3116 0.3286 86
1.0506 -1.2932 0.3847 81
1.0879 -1.3396 -0.0301 78
1.0544 -1.2989 0.4483 82
1.0959 -1.3538 0.0304 95
1.0840 -1.3401 0.0903 100
1.0862 -1.3432 0.1511 87
1.0967 -1.3572 0.2142 100
1.0958 -1.3571 0.2763 100
1.0617 -1.3153 0.3286 82
1.0485 -1.2999 0.3856 83
1.0857 -1.3465 -0.0302 78
1.0499 -1.3025 0.4483 62
1.0836 -1.3482 0.0302 93
1.0843 -1.3501 0.0908 100
1.0815 -1.3470 0.1511 87
1.0857 -1.3533 0.2130 100
1.0935 -1.3640 0.2769 100
1.0498 -1.3098 0.3263 80
1.0440 -1.3036 0.3856 81
1.0823 -1.3519 -0.0302 75
1.0695 -1.3364 0.4586 86
1.0814 -1.3551 0.0303 93
1.0721 -1.3445 0.0901 100
1.0817 -1.3570 0.1518 84
1.0760 -1.3508 0.2121 100
1.0912 -1.3709 0.2775 100
1.0476 -1.3166 0.3270 84
1.0370 -1.3041 0.3847 78
1.0788 -1.3572 -0.0303 71
1.0624 -1.3371 0.4576 99
1.0792 -1.3620 0.0303 87
1.0637 -1.3435 0.0898 100
1.0819 -1.3670 0.1525 84
1.0713 -1.3546 0.2121 100
1.0815 -1.3685 0.2763 100
1.0454 -1.3233 0.3278 84
1.0300 -1.3047 0.3838 79
1.0716 -1.3578 -0.0302 78
1.0745 -1.3620 0.4648 100
1.0769 -1.3689 0.0304 95
1.0603 -1.3488 0.0899 100
1.0722 -1.3645 0.1518 87
1.0678 -1.3599 0.2123 100
1.0719 -1.3660 0.2750 100
1.0432 -1.3300 0.3286 84
1.0255 -1.3083 0.3838 79
1.0631 -1.3568 -0.0301 73
1.0661 -1.3612 0.4633 100
1.0647 -1.3632 0.0302 93
1.0595 -1.3570 0.0902 100
1.0613 -1.3604 0.1510 93
1.0679 -1.3699 0.2133 100
1.0673 -1.3696 0.2750 100
1.0314 -1.3244 0.3263 82
1.0257 -1.3180 0.3856 81
1.0574 -1.3588 -0.0301 81
1.0545 -1.3556 0.4602 100
1.0602 -1.3668 0.0302 93
1.0572 -1.3639 0.0904 100
1.0566 -1.3641 0.1510 90
1.0622 -1.3718 0.2130 100
1.0698 -1.3827 0.2769 100
1.0270 -1.3278 0.3263 84
1.0225 -1.3229 0.3860 85
1.0575 -1.3688 -0.0302 78
1.0545 -1.3653 0.4623 99
1.0578 -1.3736 0.0303 93
1.0488 -1.3628 0.0901 100
1.0581 -1.3755 0.1518 84
1.0525 -1.3692 0.2121 100
1.0674 -1.3895 0.2775 100
1.0247 -1.3345 0.3270 79
1.0143 -1.3219 0.3847 83
1.0528 -1.3725 -0.0302 78
1.0497 -1.3690 0.4623 99
1.0530 -1.3773 0.0303 93
1.0355 -1.3554 0.0894 100
1.0533 -1.3792 0.1518 87
1.0466 -1.3713 0.2118 100
1.0577 -1.3870 0.2763 100
1.0200 -1.3380 0.3270 80
1.0026 -1.3161 0.3820 81
1.0455 -1.3730 -0.0301 78
1.0473 -1.3757 0.4633 99
1.0531 -1.3873 0.0304 93
1.0344 -1.3637 0.0897 100
1.0485 -1.3828 0.1518 84
1.0418 -1.3750 0.2118 100
1.0481 -1.3843 0.2750 100
1.0201 -1.3478 0.3286 79
1.0027 -1.3258 0.3838 81
1.0335 -1.3670 -0.0299 82
1.0378 -1.3732 0.4612 98
1.0410 -1.3814 0.0302 93
1.0320 -1.3705 0.0899 100
1.0305 -1.3690 0.1499 93
1.0453 -1.3897 0.2135 100
1.0433 -1.3880 0.2750 100
1.0130 -1.3483 0.3278 80
0.9992 -1.3309 0.3842 81
1.0335 -1.3770 -0.0301 79
1.0307 -1.3738 0.4602 97
1.0338 -1.3819 0.0301 91
1.0308 -1.3789 0.0902 100
1.0340 -1.3837 0.1511 87
1.0321 -1.3822 0.2118 100
1.0408 -1.3948 0.2756 100
1.0036 -1.3455 0.3263 75
0.9969 -1.3375 0.3851 81
1.0287 -1.3806 -0.0301 81
1.0259 -1.3773 0.4602 98
1.0337 -1.3919 0.0303 95
1.0260 -1.3825 0.0902 100
1.0292 -1.3873 0.1511 87
1.0202 -1.3762 0.2103 100
1.0383 -1.4016 0.2763 100
0.9978 -1.3474 0.3259 72
0.9876 -1.3347 0.3833 79
1.0263 -1.3874 -0.0301 78
1.0257 -1.3871 0.4623 97
1.0265 -1.3923 0.0302 91
1.0093 -1.3700 0.0892 100
1.0314 -1.4005 0.1522 87
1.0213 -1.3878 0.2116 100
1.0287 -1.3988 0.2750 100
1.0035 -1.3651 0.3293 73
0.9806 -1.3350 0.3824 81
1.0190 -1.3878 -0.0301 81
1.0185 -1.3876 0.4612 98
1.0263 -1.4023 0.0303 95
1.0092 -1.3800 0.0896 100
1.0195 -1.3945 0.1511 87
1.0211 -1.3977 0.2125 100
1.0215 -1.3992 0.2744 100
0.9976 -1.3670 0.3290 70
0.9760 -1.3384 0.3824 81
1.0107 -1.3865 -0.0299 85
1.0091 -1.3849 0.4591 98
1.0167 -1.3994 0.0302 95
1.0079 -1.3883 0.0899 100
1.0088 -1.3900 0.1503 93
1.0174 -1.4029 0.2128 100
1.0166 -1.4028 0.2744 100
0.9882 -1.3641 0.3274 72
0.9759 -1.3481 0.3842 81
1.0070 -1.3916 -0.0300 78
1.0066 -1.3915 0.4602 99
1.0071 -1.3964 0.0301 91
1.0089 -1.3999 0.0904 100
1.0062 -1.3967 0.1506 90
1.0102 -1.4032 0.2123 100
1.0140 -1.4095 0.2750 100
0.9811 -1.3644 0.3267 70
0.9711 -1.3515 0.3842 79
1.0091 -1.4049 -0.0302 81
1.0039 -1.3982 0.4612 97
1.0069 -1.4065 0.0302 93
0.9994 -1.3970 0.0900 100
1.0048 -1.4051 0.1511 87
0.9983 -1.3971 0.2108 97
1.0113 -1.4163 0.2756 100
0.9741 -1.3646 0.3259 72
0.9664 -1.3549 0.3842 81
1.0019 -1.4051 -0.0301 78
0.9968 -1.3985 0.4602 98
0.9997 -1.4067 0.0301 91
0.9922 -1.3972 0.0898 100
1.0045 -1.4151 0.1518 84
0.9946 -1.4021 0.2111 100
1.0087 -1.4230 0.2763 100
0.9761 -1.3776 0.3282 69
0.9572 -1.3519 0.3824 79
0.9970 -1.4086 -0.0301 79
0.9964 -1.4083 0.4623 97
1.0017 -1.4200 0.0303 95
0.9853 -1.3972 0.0896 100
0.9950 -1.4121 0.1511 87
0.9943 -1.4121 0.2121 100
0.9949 -1.4134 0.2738 100
0.9713 -1.3810 0.3282 72
0.9569 -1.3616 0.3842 78
0.9877 -1.4054 -0.0300 79
0.9895 -1.4084 0.4612 97
0.9924 -1.4167 0.0302 91
0.9792 -1.3990 0.0895 100
0.9866 -1.4106 0.1506 93
0.9896 -1.4154 0.2121 100
0.9967 -1.4266 0.2756 100
0.9645 -1.3810 0.3274 69
0.9524 -1.3648 0.3842 81
0.9805 -1.4055 -0.0299 81
0.9824 -1.4087 0.4602 99
0.9851 -1.4169 0.0301 89
0.9791 -1.4088 0.0899 100
0.9819 -1.4139 0.1506 90
0.9835 -1.4172 0.2118 100
0.9942 -1.4332 0.2763 100
0.9597 -1.3844 0.3274 70
0.9499 -1.3713 0.3851 81
0.9804 -1.4153 -0.0301 79
0.9755 -1.4088 0.4591 97
0.9804 -1.4202 0.0301 91
0.9731 -1.4106 0.0898 100
0.9793 -1.4206 0.1510 90
0.9743 -1.4139 0.2108 100
0.9915 -1.4399 0.2769 100
0.9551 -1.3876 0.3274 69
0.9431 -1.3712 0.3842 76
0.9777 -1.4221 -0.0301 78
0.9728 -1.4154 0.4602 98
0.9800 -1.4302 0.0303 87
0.9636 -1.4074 0.0894 100
0.9824 -1.4353 0.1522 84
0.9682 -1.4157 0.2106 100
0.9797 -1.4335 0.2750 100
0.9502 -1.3909 0.3274 69
0.9339 -1.3680 0.3824 78
0.9705 -1.4222 -0.0301 81
0.9678 -1.4188 0.4602 97
0.9750 -1.4336 0.0303 97
0.9587 -1.4107 0.0894 100
0.9682 -1.4257 0.1508 87
0.9700 -1.4289 0.2121 100
0.9681 -1.4271 0.2731 100
0.9473 -1.3976 0.3282 69
0.9289 -1.3715 0.3824 79
0.9622 -1.4206 -0.0299 85
0.9564 -1.4125 0.4571 92
0.9675 -1.4338 0.0302 91
0.9580 -1.4208 0.0898 100
0.9599 -1.4242 0.1503 93
0.9659 -1.4341 0.2123 100
0.9672 -1.4372 0.2744 100
0.9380 -1.3944 0.3267 69
0.9241 -1.3747 0.3824 79
0.9603 -1.4291 -0.0301 81
0.9533 -1.4192 0.4581 92
0.9603 -1.4339 0.0301 93
0.9553 -1.4275 0.0900 100
0.9569 -1.4310 0.1506 90
0.9553 -1.4292 0.2111 100
0.9644 -1.4439 0.2750 100
0.9329 -1.3978 0.3267 70
0.9234 -1.3846 0.3842 81
0.9575 -1.4357 -0.0301 78
0.9462 -1.4193 0.4571 90
0.9577 -1.4404 0.0302 89
0.9505 -1.4307 0.0900 100
0.9568 -1.4406 0.1513 90
0.9484 -1.4291 0.2106 100
0.9640 -1.4537 0.2763 100
0.9264 -1.3975 0.3259 70
0.9169 -1.3842 0.3833 76
0.9527 -1.4389 -0.0301 79
0.9436 -1.4257 0.4581 92
0.9549 -1.4471 0.0303 93
0.9367 -1.4206 0.0892 100
0.9504 -1.4424 0.1511 87
0.9478 -1.4390 0.2116 100
0.9589 -1.4570 0.2763 100
0.9234 -1.4041 0.3267 69
0.9097 -1.3843 0.3824 78
0.9433 -1.4355 -0.0300 81
0.9418 -1.4338 0.4597 92
0.9474 -1.4472 0.0302 97
0.9372 -1.4322 0.0897 100
0.9432 -1.4424 0.1508 87
0.9425 -1.4425 0.2116 100
0.9452 -1.4471 0.2738 100
0.9228 -1.4139 0.3282 70
0.9048 -1.3875 0.3824 81
0.9339 -1.4321 -0.0298 82
0.9347 -1.4339 0.4586 90
0.9404 -1.4470 0.0301 89
0.9322 -1.4355 0.0897 100
0.9371 -1.4440 0.1506 90
0.9388 -1.4472 0.2118 100
0.9423 -1.4537 0.2744 100
0.9138 -1.4104 0.3267 70
0.9045 -1.3970 0.3842 78
0.9333 -1.4421 -0.0300 79
0.9245 -1.4290 0.4560 94
0.9332 -1.4469 0.0301 89
0.9294 -1.4421 0.0899 100
0.9333 -1.4488 0.1508 84
0.9316 -1.4472 0.2113 97
0.9415 -1.4637 0.2756 100
0.9068 -1.4103 0.3259 69
0.9038 -1.4067 0.3860 79
0.9304 -1.4487 -0.0301 78
0.9268 -1.4436 0.4597 90
0.9303 -1.4535 0.0301 97
0.9254 -1.4470 0.0900 100
0.9302 -1.4556 0.1511 87
0.9254 -1.4487 0.2111 100
0.9363 -1.4669 0.2756 100
0.9048 -1.4185 0.3270 73
0.8923 -1.4001 0.3833 78
0.9275 -1.4553 -0.0301 79
0.9217 -1.4468 0.4597 90
0.9292 -1.4637 0.0303 91
0.9158 -1.4437 0.0896 100
