0.2186 -0.8275 -0.0149 4 7
0.2052 -0.8103 -0.0146 4 7
0.1943 -0.7679 0.2122 8 15
0.2099 -0.8376 0.1060 8 11
0.2334 -0.9340 -0.0505 2 6
0.2039 -0.8168 0.1944 10 14
0.2048 -0.8207 -0.0148 4 7
0.1926 -0.7723 0.2133 8 15
0.2016 -0.8194 0.1948 9 14
0.1857 -0.7561 0.2086 10 15
0.2267 -0.9356 -0.0505 2 6
0.1976 -0.8163 0.1939 15 14
0.1967 -0.8124 -0.0146 9 7
0.1835 -0.7586 0.2091 14 15
0.2234 -0.9364 -0.0505 2 6
0.1970 -0.8265 0.1962 16 14
0.1962 -0.8228 -0.0148 9 7
0.1800 -0.7555 0.2081 17 15
0.2115 -0.8932 0.0160 4 8
0.1941 -0.8222 0.0739 8 10
0.1946 -0.8250 0.1041 17 11
0.1938 -0.8230 0.1339 9 12
0.1902 -0.8084 0.1614 12 13
0.2203 -0.9371 -0.0505 2 6
0.1876 -0.7987 0.1894 18 14
0.1933 -0.8235 -0.0148 13 7
0.1787 -0.7617 0.2096 20 15
0.1927 -0.8286 0.0744 11 10
0.1939 -0.8353 0.1053 16 11
0.1874 -0.8090 0.1614 12 13
0.2044 -0.8834 -0.0475 3 6
0.1879 -0.8126 0.1926 20 14
0.1883 -0.8144 -0.0146 13 7
0.1787 -0.7736 0.2127 20 15
0.2103 -0.9160 0.0164 6 8
0.1871 -0.8177 0.0734 11 10
0.1876 -0.8205 0.1033 17 11
0.1981 -0.8683 -0.0779 3 5
0.1869 -0.8192 0.1633 15 13
0.1997 -0.8763 -0.0471 3 6
0.1822 -0.7999 0.1894 26 14
0.1850 -0.8131 -0.0146 18 7
0.1726 -0.7592 0.2086 25 15
0.1907 -0.8456 0.0454 10 9
0.1882 -0.8366 0.1053 28 11
0.1823 -0.8114 0.1317 17 12
0.1950 -0.8690 -0.0779 3 5
0.1840 -0.8199 0.1633 18 13
0.1984 -0.8848 -0.0475 3 6
0.1773 -0.7911 0.1872 27 14
0.1848 -0.8254 -0.0148 18 7
0.1700 -0.7598 0.2086 29 15
0.1922 -0.8648 0.0155 8 8
0.1925 -0.8677 0.0466 9 9
0.1844 -0.8326 0.0746 18 10
0.1845 -0.8334 0.1048 28 11
0.1777 -0.8043 0.1305 21 12
0.1920 -0.8697 -0.0779 3 5
0.1764 -0.7995 0.1591 22 13
0.1866 -0.8465 -0.0454 4 6
0.1723 -0.7822 0.1849 40 14
0.1806 -0.8202 -0.0147 22 7
0.1686 -0.7660 0.2102 30 15
0.1946 -0.8909 0.0159 10 8
0.1855 -0.8508 0.0456 15 9
0.1780 -0.8186 0.1029 35 11
0.1756 -0.8088 0.1311 24 12
0.1888 -0.8704 -0.0779 3 5
0.1752 -0.8077 0.1607 28 13
0.1815 -0.8374 -0.0449 4 6
0.1691 -0.7809 0.1845 48 14
0.1785 -0.8248 -0.0147 31 7
0.1645 -0.7610 0.2086 36 15
0.1898 -0.8837 0.0158 15 8
0.1796 -0.8378 0.0449 24 9
0.1805 -0.8436 0.0755 34 10
0.1748 -0.8172 0.1026 36 11
0.1707 -0.7998 0.1295 29 12
0.1683 -0.7892 -0.0706 4 5
0.1702 -0.7988 0.1588 26 13
0.1822 -0.8556 -0.0458 3 6
0.1626 -0.7643 0.1804 51 14
0.1739 -0.8176 -0.0146 37 7
0.1651 -0.7766 0.2127 38 15
0.1803 -0.8551 0.0153 24 8
0.1742 -0.8267 0.0443 28 9
0.1698 -0.8072 0.0722 36 10
0.1722 -0.8198 0.1029 39 11
0.1322 -0.6294 -0.0790 6 4
0.1692 -0.8062 0.1305 28 12
0.1697 -0.8093 -0.0723 4 5
0.1670 -0.7974 0.1584 33 13
0.1763 -0.8426 -0.0451 8 6
0.1605 -0.7668 0.1809 63 14
0.1698 -0.8123 -0.0145 41 7
0.1604 -0.7678 0.2102 40 15
0.1759 -0.8478 0.0151 30 8
0.1727 -0.8331 0.0446 30 9
0.1671 -0.8077 0.0722 42 10
0.1703 -0.8243 0.1033 48 11
0.1641 -0.7951 0.1286 33 12
0.1605 -0.7786 -0.0696 5 5
0.1632 -0.7922 0.1572 43 13
0.1735 -0.8431 -0.0451 8 6
0.1587 -0.7711 0.1818 63 14
0.1708 -0.8305 -0.0148 45 7
0.1547 -0.7531 0.2060 53 15
0.1683 -0.8249 0.0147 37 8
0.1702 -0.8357 0.0447 35 9
0.1621 -0.7966 0.0711 48 10
0.1632 -0.8034 0.1007 57 11
0.1279 -0.6303 -0.0790 6 4
0.1601 -0.7899 0.1277 41 12
0.1611 -0.7947 -0.0709 4 5
0.1598 -0.7889 0.1565 49 13
0.1680 -0.8300 -0.0444 8 6
0.1560 -0.7717 0.1818 78 14
0.1667 -0.8252 -0.0147 45 7
0.1552 -0.7688 0.2102 64 15
0.1666 -0.8313 0.0148 48 8
0.1633 -0.8167 0.0436 43 9
0.1628 -0.8147 0.0727 51 10
0.1423 -0.7129 -0.1151 4 3
0.1611 -0.8079 0.1012 55 11
0.1583 -0.7943 -0.0994 4 4
0.1593 -0.8001 0.1292 39 12
0.1568 -0.7875 -0.0702 4 5
0.1563 -0.7856 0.1557 63 13
0.1616 -0.8130 -0.0434 9 6
0.1510 -0.7607 0.1791 78 14
0.1669 -0.8415 -0.0150 56 7
0.1525 -0.7694 0.2102 68 15
0.1617 -0.8221 0.0146 43 8
0.1574 -0.8016 0.0428 43 9
0.1607 -0.8192 0.0730 48 10
0.1641 -0.8374 -0.1352 3 3
0.1587 -0.8104 0.1014 60 11
0.1517 -0.7754 -0.0970 4 4
0.1554 -0.7949 0.1283 48 12
0.1543 -0.7900 -0.0704 4 5
0.1531 -0.7842 0.1553 63 13
0.1614 -0.8272 -0.0442 13 6
0.1488 -0.7632 0.1795 90 14
0.1602 -0.8224 -0.0146 58 7
0.1505 -0.7737 0.2112 68 15
0.1608 -0.8325 0.0148 52 8
0.1550 -0.8041 0.0429 45 9
0.1543 -0.8022 0.0715 54 10
0.1540 -0.8012 0.1002 68 11
0.1460 -0.7603 -0.0951 4 4
0.1518 -0.7915 0.1277 52 12
0.1504 -0.7847 -0.0699 5 5
0.1521 -0.7944 0.1572 64 13
0.1584 -0.8278 -0.0442 13 6
0.1467 -0.7676 0.1804 100 14
0.1573 -0.8230 -0.0146 54 7
0.1464 -0.7666 0.2091 76 15
0.1529 -0.8075 0.0143 54 8
0.1540 -0.8144 0.0434 45 9
0.1530 -0.8105 0.0722 54 10
0.1406 -0.7454 -0.1201 4 3
0.1525 -0.8096 0.1012 69 11
0.1447 -0.7686 -0.0960 4 4
0.1495 -0.7940 0.1280 56 12
0.1473 -0.7832 -0.0697 10 5
0.1479 -0.7872 0.1557 84 13
0.1558 -0.8303 -0.0443 13 6
0.1444 -0.7700 0.1809 100 14
0.1537 -0.8196 -0.0146 60 7
0.1416 -0.7557 0.2060 85 15
0.1535 -0.8257 0.0147 57 8
0.1523 -0.8208 0.0438 43 9
0.1502 -0.8111 0.0722 54 10
0.1446 -0.7808 -0.1258 3 3
0.1491 -0.8062 0.1007 71 11
0.1407 -0.7613 -0.0951 4 4
0.1452 -0.7867 0.1267 62 12
0.1445 -0.7837 -0.0697 10 5
0.1428 -0.7742 0.1530 83 13
0.1513 -0.8210 -0.0438 13 6
0.1425 -0.7743 0.1818 100 14
0.1526 -0.8300 -0.0147 63 7
0.1400 -0.7619 0.2076 80 15
0.1495 -0.8204 0.0146 59 8
0.1466 -0.8057 0.0429 48 9
0.1478 -0.8135 0.0723 54 10
0.1433 -0.7891 -0.1270 3 3
0.1442 -0.7950 0.0992 75 11
0.1359 -0.7501 -0.0936 5 4
0.1453 -0.8028 0.1292 54 12
0.1422 -0.7862 -0.0699 10 5
0.1422 -0.7863 0.1553 94 13
0.1481 -0.8196 -0.0436 13 6
0.1377 -0.7633 0.1791 100 14
0.1511 -0.8384 -0.0149 65 7
0.1373 -0.7624 0.2076 82 15
0.1463 -0.8189 0.0145 63 8
0.1434 -0.8042 0.0428 53 9
0.1284 -0.7209 -0.1423 9 2
0.1463 -0.8219 0.0730 60 10
0.1369 -0.7702 -0.1239 3 3
0.1421 -0.7994 0.0997 78 11
0.1395 -0.7857 -0.0980 9 4
0.1422 -0.8013 0.1289 58 12
0.1401 -0.7906 -0.0702 9 5
0.1403 -0.7926 0.1565 94 13
0.1451 -0.8201 -0.0436 18 6
0.1343 -0.7599 0.1782 100 14
0.1472 -0.8330 -0.0148 72 7
0.1357 -0.7686 0.2091 87 15
0.1457 -0.8332 0.0148 64 8
0.1418 -0.8126 0.0432 57 9
0.1396 -0.8008 0.0711 66 10
0.1369 -0.7862 -0.1264 3 3
0.1409 -0.8097 0.1009 76 11
0.1360 -0.7823 -0.0975 9 4
0.1392 -0.8019 0.1289 61 12
0.1355 -0.7813 -0.0694 10 5
0.1372 -0.7912 0.1561 100 13
0.1425 -0.8226 -0.0438 18 6
0.1329 -0.7681 0.1800 100 14
0.1414 -0.8177 -0.0145 69 7
0.1325 -0.7672 0.2086 100 15
0.1401 -0.8180 0.0145 70 8
0.1363 -0.7973 0.0424 50 9
0.1377 -0.8072 0.0716 78 10
0.1287 -0.7556 -0.1214 8 3
0.1380 -0.8102 0.1009 76 11
0.1292 -0.7593 -0.0946 10 4
0.1361 -0.8004 0.1286 63 12
0.1358 -0.7995 -0.0709 9 5
0.1330 -0.7839 0.1546 100 13
0.1395 -0.8231 -0.0438 18 6
0.1311 -0.7743 0.1813 100 14
0.1395 -0.8241 -0.0146 74 7
0.1298 -0.7676 0.2086 100 15
0.1367 -0.8145 0.0144 68 8
0.1356 -0.8096 0.0430 57 9
0.1268 -0.7571 -0.1492 8 2
0.1358 -0.8116 0.0720 78 10
0.1192 -0.7131 -0.1145 9 3
0.1337 -0.8008 0.0997 78 11
0.1313 -0.7871 -0.0980 9 4
0.1334 -0.8008 0.1286 63 12
0.1318 -0.7920 -0.0702 14 5
0.1302 -0.7824 0.1542 100 13
0.1356 -0.8157 -0.0433 19 6
0.1287 -0.7747 0.1813 100 14
0.1362 -0.8207 -0.0145 64 7
0.1282 -0.7738 0.2102 100 15
0.1332 -0.8110 0.0143 68 8
0.1136 -0.6923 -0.1620 9 1
0.1292 -0.7884 0.0419 48 9
0.1202 -0.7343 -0.1446 9 2
0.1338 -0.8180 0.0725 66 10
0.1242 -0.7603 -0.1220 8 3
0.1300 -0.7954 0.0990 85 11
0.1247 -0.7641 -0.0951 9 4
0.1306 -0.8013 0.1286 67 12
0.1284 -0.7886 -0.0699 15 5
0.1277 -0.7848 0.1546 100 13
0.1317 -0.8102 -0.0430 19 6
0.1240 -0.7637 0.1786 100 14
0.1336 -0.8231 -0.0146 69 7
0.1255 -0.7742 0.2102 100 15
0.1315 -0.8194 0.0145 70 8
0.1287 -0.8026 0.0426 59 9
0.1214 -0.7580 -0.1492 8 2
0.1306 -0.8165 0.0723 77 10
0.1191 -0.7451 -0.1195 8 3
0.1286 -0.8057 0.1002 82 11
0.1232 -0.7724 -0.0960 9 4
0.1272 -0.7978 0.1280 63 12
0.1291 -0.8106 -0.0718 13 5
0.1271 -0.7988 0.1572 100 13
0.1288 -0.8107 -0.0430 24 6
0.1204 -0.7583 0.1773 100 14
0.1304 -0.8216 -0.0145 74 7
0.1237 -0.7804 0.2117 100 15
0.1291 -0.8218 0.0145 63 8
0.0888 -0.5660 -0.1323 12 1
0.1240 -0.7912 0.0420 55 9
0.1188 -0.7584 -0.1492 8 2
0.1272 -0.8130 0.0720 72 10
0.1160 -0.7416 -0.1189 8 3
0.1266 -0.8100 0.1007 80 11
0.1206 -0.7728 -0.0960 9 4
0.1244 -0.7983 0.1280 67 12
0.1214 -0.7796 -0.0690 15 5
0.1238 -0.7954 0.1565 100 13
0.1268 -0.8151 -0.0432 19 6
0.1194 -0.7683 0.1795 100 14
0.1272 -0.8201 -0.0145 78 7
0.1204 -0.7770 0.2107 100 15
0.1257 -0.8183 0.0145 70 8
0.1211 -0.7897 -0.1845 6 1
0.1223 -0.7976 0.0423 56 9
0.1204 -0.7859 -0.1546 7 2
0.1239 -0.8095 0.0716 78 10
0.1164 -0.7616 -0.1220 8 3
0.1234 -0.8085 0.1004 80 11
0.1176 -0.7712 -0.0958 9 4
0.1221 -0.8006 0.1283 67 12
0.1194 -0.7839 -0.0694 15 5
0.1196 -0.7861 0.1546 100 13
0.1254 -0.8254 -0.0438 23 6
0.1161 -0.7649 0.1786 100 14
0.1251 -0.8244 -0.0146 83 7
0.1170 -0.7717 0.2091 100 15
0.1232 -0.8207 0.0145 80 8
0.1210 -0.8079 0.0428 59 9
0.1159 -0.7747 -0.1523 8 2
0.1204 -0.8059 0.0713 78 10
0.1142 -0.7639 -0.1223 8 3
0.1193 -0.7991 0.0992 90 11
0.1174 -0.7873 -0.0977 9 4
0.1193 -0.8011 0.1283 71 12
0.1187 -0.7981 -0.0706 14 5
0.1161 -0.7806 0.1534 100 13
0.1221 -0.8218 -0.0435 23 6
0.1153 -0.7768 0.1813 100 14
0.1228 -0.8288 -0.0146 81 7
0.1143 -0.7721 0.2091 100 15
0.1201 -0.8191 0.0145 73 8
0.0954 -0.6517 -0.1521 10 1
0.1176 -0.8043 0.0426 59 9
0.1105 -0.7557 -0.1484 8 2
0.1172 -0.8024 0.0709 81 10
0.1084 -0.7428 -0.1189 8 3
0.1173 -0.8054 0.0999 87 11
0.1123 -0.7720 -0.0958 9 4
0.1168 -0.8034 0.1286 71 12
0.1162 -0.8005 -0.0708 14 5
0.1134 -0.7810 0.1534 100 13
0.1175 -0.8104 -0.0429 29 6
0.1106 -0.7637 0.1782 100 14
0.1199 -0.8292 -0.0146 90 7
0.1121 -0.7763 0.2102 100 15
0.1164 -0.8136 0.0143 87 8
0.1126 -0.7889 0.0418 61 9
0.1080 -0.7580 -0.1488 8 2
0.1162 -0.8166 0.0722 93 10
0.1065 -0.7490 -0.1198 8 3
0.1140 -0.8019 0.0994 87 11
0.1085 -0.7645 -0.0948 9 4
0.1129 -0.7960 0.1273 71 12
0.1129 -0.7970 -0.0704 14 5
0.1119 -0.7912 0.1553 100 13
0.1148 -0.8128 -0.0430 34 6
0.1075 -0.7622 0.1777 100 14
0.1159 -0.8217 -0.0145 92 7
0.1097 -0.7786 0.2107 100 15
0.1139 -0.8180 0.0144 87 8
0.1117 -0.8032 0.0425 71 9
0.1032 -0.7428 -0.1458 9 2
0.1123 -0.8091 0.0715 90 10
0.1041 -0.7514 -0.1201 8 3
0.1121 -0.8101 0.1004 85 11
0.1068 -0.7728 -0.0958 14 4
0.1095 -0.7925 0.1267 77 12
0.1109 -0.8033 -0.0709 14 5
0.1107 -0.8032 0.1576 100 13
0.1128 -0.8191 -0.0433 28 6
0.1059 -0.7703 0.1795 100 14
0.1131 -0.8221 -0.0145 97 7
0.1062 -0.7732 0.2091 100 15
0.1107 -0.8144 0.0143 90 8
0.0944 -0.6952 -0.1620 9 1
0.1103 -0.8134 0.0430 72 9
0.0996 -0.7354 -0.1443 9 2
0.1089 -0.8056 0.0711 90 10
0.1022 -0.7556 -0.1208 12 3
0.1100 -0.8144 0.1009 85 11
0.1043 -0.7731 -0.0958 14 4
0.1063 -0.7890 0.1261 81 12
0.1084 -0.8056 -0.0711 14 5
0.1062 -0.7900 0.1549 100 13
0.1109 -0.8254 -0.0436 37 6
0.1034 -0.7706 0.1795 100 14
0.1118 -0.8344 -0.0147 100 7
0.1030 -0.7697 0.2081 100 15
0.1086 -0.8207 0.0145 91 8
0.1069 -0.8099 0.0428 78 9
0.0981 -0.7435 -0.1458 9 2
0.1068 -0.8099 0.0715 90 10
0.0985 -0.7481 -0.1195 12 3
0.1066 -0.8109 0.1004 80 11
0.1016 -0.7735 -0.0958 14 4
0.1045 -0.7972 0.1273 78 12
0.1050 -0.8021 -0.0708 14 5
0.1030 -0.7864 0.1542 100 13
0.1059 -0.8100 -0.0428 39 6
0.1022 -0.7826 0.1822 100 14
0.1068 -0.8189 -0.0144 97 7
0.1013 -0.7778 0.2102 100 15
0.1058 -0.8211 0.0145 98 8
0.1038 -0.8082 0.0427 87 9
0.0997 -0.7770 -0.1523 8 2
0.1048 -0.8182 0.0722 84 10
0.0980 -0.7661 -0.1223 12 3
0.1023 -0.7994 0.0990 90 11
0.0989 -0.7739 -0.0958 14 4
0.1020 -0.7995 0.1277 82 12
0.1025 -0.8044 -0.0709 14 5
0.1001 -0.7868 0.1542 100 13
0.1037 -0.8163 -0.0431 38 6
0.0979 -0.7714 0.1795 100 14
0.1044 -0.8233 -0.0145 92 7
0.0981 -0.7743 0.2091 100 15
0.1030 -0.8235 0.0145 84 8
0.0995 -0.7967 0.0421 91 9
0.0945 -0.7578 -0.1484 8 2
0.1020 -0.8185 0.0722 90 10
0.0963 -0.7743 -0.1236 11 3
0.1008 -0.8116 0.1004 85 11
0.0950 -0.7663 -0.0948 14 4
0.1002 -0.8077 0.1289 94 12
0.0999 -0.8067 -0.0711 19 5
0.0971 -0.7852 0.1538 100 13
0.1011 -0.8186 -0.0432 38 6
0.0940 -0.7620 0.1773 100 14
0.1011 -0.8197 -0.0144 97 7
0.0963 -0.7823 0.2112 100 15
0.1010 -0.8297 0.0146 91 8
0.0912 -0.7506 -0.1746 7 1
0.0982 -0.8089 0.0427 81 9
0.0907 -0.7484 -0.1465 17 2
0.0981 -0.8110 0.0715 84 10
0.0899 -0.7432 -0.1186 12 3
0.0986 -0.8159 0.1009 85 11
0.0939 -0.7785 -0.0963 14 4
0.0964 -0.8002 0.1277 97 12
0.0976 -0.8110 -0.0715 18 5
0.0957 -0.7953 0.1557 100 13
0.0986 -0.8210 -0.0433 38 6
0.0931 -0.7759 0.1804 100 14
0.0968 -0.8081 -0.0142 100 7
0.0929 -0.7769 0.2096 100 15
0.0976 -0.8261 0.0145 98 8
0.0947 -0.8033 0.0424 78 9
0.0873 -0.7409 -0.1450 18 2
0.0954 -0.8113 0.0715 87 10
0.0876 -0.7455 -0.1189 12 3
0.0962 -0.8202 0.1014 78 11
0.0919 -0.7847 -0.0970 13 4
0.0943 -0.8064 0.1286 100 12
0.0951 -0.8133 -0.0716 18 5
0.0924 -0.7917 0.1549 100 13
0.0969 -0.8312 -0.0439 37 6
0.0904 -0.7762 0.1804 100 14
0.0956 -0.8223 -0.0145 100 7
0.0891 -0.7676 0.2071 100 15
0.0938 -0.8185 0.0144 97 8
0.0930 -0.8136 0.0429 78 9
0.0869 -0.7607 -0.1488 17 2
0.0926 -0.8116 0.0715 93 10
0.0854 -0.7497 -0.1195 12 3
0.0920 -0.8087 0.0999 82 11
0.0874 -0.7692 -0.0951 14 4
0.0915 -0.8067 0.1286 100 12
0.0923 -0.8137 -0.0716 18 5
0.0897 -0.7920 0.1549 100 13
0.0927 -0.8196 -0.0432 38 6
0.0881 -0.7804 0.1813 100 14
0.0932 -0.8266 -0.0145 100 7
0.0866 -0.7698 0.2076 100 15
0.0916 -0.8248 0.0145 100 8
0.0855 -0.7709 -0.1791 7 1
0.0892 -0.8040 0.0424 75 9
0.0864 -0.7805 -0.1526 16 2
0.0902 -0.8159 0.0718 96 10
0.0837 -0.7579 -0.1208 12 3
0.0879 -0.7971 0.0985 100 11
0.0862 -0.7834 -0.0968 13 4
0.0903 -0.8208 0.1308 98 12
0.0894 -0.8140 -0.0716 18 5
0.0867 -0.7904 0.1546 100 13
0.0889 -0.8120 -0.0428 39 6
0.0845 -0.7729 0.1795 100 14
0.0898 -0.8210 -0.0144 100 7
0.0847 -0.7759 0.2091 100 15
0.0891 -0.8271 0.0145 98 8
0.0832 -0.7731 -0.1795 7 1
0.0866 -0.8063 0.0425 81 9
0.0795 -0.7418 -0.1450 18 2
0.0878 -0.8202 0.0722 96 10
0.0814 -0.7601 -0.1211 12 3
0.0861 -0.8053 0.0994 87 11
0.0823 -0.7718 -0.0953 14 4
0.0856 -0.8034 0.1280 100 12
0.0881 -0.8281 -0.0729 17 5
0.0841 -0.7907 0.1546 100 13
0.0862 -0.8123 -0.0428 39 6
0.0813 -0.7674 0.1782 100 14
0.0863 -0.8153 -0.0143 100 7
0.0828 -0.7838 0.2112 100 15
0.0871 -0.8353 0.0147 91 8
0.0758 -0.7288 -0.1692 8 1
0.0842 -0.8105 0.0427 81 9
0.0779 -0.7499 -0.1465 17 2
0.0838 -0.8086 0.0711 93 10
0.0799 -0.7722 -0.1230 11 3
0.0847 -0.8194 0.1012 87 11
0.0801 -0.7760 -0.0958 14 4
0.0828 -0.8037 0.1280 100 12
0.0840 -0.8166 -0.0718 18 5
0.0815 -0.7929 0.1549 100 13
0.0842 -0.8206 -0.0432 38 6
0.0796 -0.7774 0.1804 100 14
0.0826 -0.8077 -0.0142 100 7
0.0795 -0.7784 0.2096 100 15
0.0827 -0.8217 0.0144 100 8
0.0818 -0.8148 0.0429 84 9
0.0763 -0.7619 -0.1488 17 2
0.0805 -0.8049 0.0708 100 10
0.0759 -0.7607 -0.1211 12 3
0.0824 -0.8257 0.1019 81 11
0.0783 -0.7862 -0.0970 13 4
0.0811 -0.8158 0.1298 100 12
0.0807 -0.8129 -0.0715 18 5
0.0786 -0.7932 0.1549 100 13
0.0812 -0.8209 -0.0432 38 6
0.0770 -0.7796 0.1809 100 14
0.0810 -0.8199 -0.0144 100 7
0.0764 -0.7748 0.2086 100 15
0.0793 -0.8180 0.0143 100 8
0.0789 -0.8151 0.0429 84 9
0.0725 -0.7504 -0.1465 17 2
0.0788 -0.8171 0.0718 99 10
0.0735 -0.7629 -0.1214 12 3
0.0779 -0.8102 0.0999 87 11
0.0762 -0.7944 -0.0980 13 4
0.0783 -0.8160 0.1298 100 12
0.0775 -0.8092 -0.0711 19 5
0.0757 -0.7915 0.1546 100 13
0.0782 -0.8192 -0.0431 38 6
0.0746 -0.7837 0.1818 100 14
0.0783 -0.8222 -0.0144 100 7
0.0740 -0.7789 0.2096 100 15
0.0774 -0.8263 0.0145 100 8
0.0750 -0.8034 0.0423 90 9
0.0743 -0.7976 -0.1557 15 2
0.0754 -0.8114 0.0713 100 10
0.0707 -0.7612 -0.1211 12 3
0.0748 -0.8065 0.0994 87 11
0.0728 -0.7867 -0.0970 13 4
0.0751 -0.8124 0.1292 100 12
0.0743 -0.8055 -0.0708 19 5
0.0732 -0.7937 0.1549 100 13
0.0756 -0.8214 -0.0432 38 6
0.0706 -0.7685 0.1782 100 14
0.0760 -0.8284 -0.0145 100 7
0.0715 -0.7811 0.2102 100 15
0.0752 -0.8345 0.0146 97 8
0.0721 -0.8017 0.0422 100 9
0.0678 -0.7548 -0.1473 17 2
0.0741 -0.8275 0.0727 100 10
0.0700 -0.7831 -0.1245 11 3
0.0725 -0.8126 0.1002 97 11
0.0701 -0.7870 -0.0970 13 4
0.0720 -0.8087 0.1286 100 12
0.0720 -0.8097 -0.0711 19 5
0.0706 -0.7959 0.1553 100 13
0.0724 -0.8177 -0.0430 39 6
0.0679 -0.7687 0.1782 100 14
0.0727 -0.8227 -0.0144 100 7
0.0689 -0.7813 0.2102 100 15
0.0723 -0.8327 0.0146 98 8
0.0646 -0.7455 -0.1728 8 1
0.0690 -0.7979 0.0420 81 9
0.0648 -0.7511 -0.1465 17 2
0.0699 -0.8119 0.0713 100 10
0.0671 -0.7794 -0.1239 11 3
0.0700 -0.8149 0.1004 90 11
0.0671 -0.7832 -0.0965 14 4
0.0694 -0.8109 0.1289 100 12
0.0692 -0.8099 -0.0711 19 5
0.0686 -0.8040 0.1568 100 13
0.0699 -0.8199 -0.0431 38 6
0.0659 -0.7748 0.1795 100 14
0.0698 -0.8229 -0.0144 100 7
0.0660 -0.7796 0.2096 100 15
0.0679 -0.8191 0.0143 100 8
0.0632 -0.7632 -0.1768 7 1
0.0667 -0.8061 0.0424 96 9
0.0624 -0.7552 -0.1473 17 2
0.0671 -0.8141 0.0715 100 10
0.0631 -0.7678 -0.1220 12 3
0.0672 -0.8191 0.1009 85 11
0.0641 -0.7835 -0.0965 14 4
0.0669 -0.8170 0.1298 100 12
0.0662 -0.8102 -0.0711 19 5
0.0651 -0.7984 0.1557 100 13
0.0674 -0.8281 -0.0435 37 6
0.0634 -0.7808 0.1809 100 14
0.0663 -0.8172 -0.0143 100 7
0.0625 -0.7721 0.2076 100 15
0.0655 -0.8233 0.0144 100 8
0.0637 -0.8044 0.0423 71 9
0.0603 -0.7633 -0.1488 17 2
0.0642 -0.8144 0.0715 100 10
0.0603 -0.7641 -0.1214 12 3
0.0635 -0.8074 0.0994 87 11
0.0628 -0.7995 -0.0985 13 4
0.0639 -0.8153 0.1295 94 12
0.0640 -0.8184 -0.0718 18 5
0.0621 -0.7947 0.1549 100 13
0.0640 -0.8204 -0.0431 38 6
0.0612 -0.7869 0.1822 100 14
0.0635 -0.8174 -0.0143 100 7
0.0601 -0.7762 0.2086 100 15
0.0629 -0.8275 0.0145 100 8
0.0569 -0.7501 -0.1737 7 1
0.0609 -0.8046 0.0423 90 9
0.0590 -0.7791 -0.1519 16 2
0.0624 -0.8265 0.0725 100 10
0.0580 -0.7702 -0.1223 12 3
0.0604 -0.8037 0.0990 90 11
0.0591 -0.7879 -0.0970 13 4
0.0616 -0.8234 0.1308 94 12
0.0610 -0.8146 -0.0715 18 5
0.0598 -0.8007 0.1561 100 13
0.0614 -0.8246 -0.0433 38 6
0.0576 -0.7754 0.1795 100 14
0.0615 -0.8296 -0.0145 100 7
0.0581 -0.7860 0.2112 100 15
0.0603 -0.8317 0.0146 100 8
0.0563 -0.7775 -0.1800 7 1
0.0581 -0.8048 0.0423 87 9
0.0537 -0.7441 -0.1450 18 2
0.0591 -0.8207 0.0720 100 10
0.0558 -0.7763 -0.1233 11 3
0.0580 -0.8098 0.0997 92 11
0.0569 -0.7960 -0.0980 13 4
0.0576 -0.8079 0.1283 100 12
0.0585 -0.8208 -0.0720 23 5
0.0566 -0.7951 0.1549 100 13
0.0591 -0.8328 -0.0438 37 6
0.0551 -0.7775 0.1800 100 14
0.0580 -0.8218 -0.0144 100 7
0.0554 -0.7862 0.2112 94 15
0.0574 -0.8319 0.0146 100 8
0.0541 -0.7854 -0.1818 7 1
0.0554 -0.8070 0.0424 96 9
0.0517 -0.7521 -0.1465 17 2
0.0563 -0.8209 0.0720 99 10
0.0516 -0.7548 -0.1198 12 3
0.0554 -0.8120 0.0999 87 11
0.0536 -0.7882 -0.0970 13 4
0.0547 -0.8061 0.1280 100 12
0.0547 -0.8071 -0.0708 23 5
0.0545 -0.8051 0.1568 100 13
0.0557 -0.8250 -0.0433 42 6
0.0521 -0.7738 0.1791 100 14
0.0552 -0.8220 -0.0144 100 7
0.0521 -0.7787 0.2091 100 15
0.0545 -0.8321 0.0146 100 8
0.0529 -0.8089 -0.1872 6 1
0.0525 -0.8052 0.0423 84 9
0.0490 -0.7523 -0.1465 17 2
0.0520 -0.7993 0.0701 100 10
0.0490 -0.7550 -0.1198 12 3
0.0530 -0.8201 0.1009 85 11
0.0501 -0.7765 -0.0955 14 4
0.0517 -0.8043 0.1277 93 12
0.0522 -0.8112 -0.0711 19 5
0.0508 -0.7915 0.1542 100 13
0.0529 -0.8272 -0.0434 38 6
0.0497 -0.7799 0.1804 100 14
0.0522 -0.8202 -0.0143 99 7
0.0484 -0.7635 0.2050 99 15
0.0511 -0.8243 0.0144 100 8
0.0499 -0.8093 0.0425 87 9
0.0484 -0.7838 -0.1526 16 2
0.0497 -0.8074 0.0708 100 10
0.0468 -0.7630 -0.1211 12 3
0.0494 -0.8084 0.0994 82 11
0.0488 -0.8005 -0.0985 13 4
0.0493 -0.8104 0.1286 82 12
0.0491 -0.8074 -0.0708 19 5
0.0479 -0.7897 0.1538 100 13
0.0497 -0.8214 -0.0431 38 6
0.0473 -0.7839 0.1813 100 14
0.0499 -0.8304 -0.0145 100 7
0.0467 -0.7791 0.2091 97 15
0.0483 -0.8245 0.0144 100 8
0.0436 -0.7470 -0.1728 8 1
0.0468 -0.8035 0.0422 96 9
0.0438 -0.7526 -0.1465 17 2
0.0473 -0.8155 0.0715 100 10
0.0447 -0.7731 -0.1226 12 3
0.0466 -0.8086 0.0994 82 11
0.0451 -0.7848 -0.0965 14 4
0.0460 -0.8027 0.1273 75 12
0.0470 -0.8195 -0.0718 18 5
0.0455 -0.7958 0.1549 100 13
0.0469 -0.8235 -0.0432 38 6
0.0441 -0.7763 0.1795 100 14
0.0469 -0.8285 -0.0145 100 7
0.0446 -0.7908 0.2122 88 15
0.0454 -0.8246 0.0144 100 8
0.0407 -0.7414 -0.1714 8 1
0.0435 -0.7937 0.0417 78 9
0.0403 -0.7371 -0.1435 9 2
0.0450 -0.8256 0.0723 100 10
0.0420 -0.7732 -0.1226 12 3
0.0440 -0.8127 0.0999 87 11
0.0422 -0.7790 -0.0958 14 4
0.0433 -0.8028 0.1273 71 12
0.0441 -0.8197 -0.0718 18 5
0.0428 -0.7979 0.1553 100 13
0.0444 -0.8297 -0.0435 37 6
0.0415 -0.7764 0.1795 100 14
0.0440 -0.8267 -0.0145 100 7
0.0421 -0.7929 0.2127 84 15
0.0429 -0.8288 0.0145 100 8
0.0395 -0.7668 -0.1773 7 1
0.0421 -0.8178 0.0429 84 9
0.0383 -0.7451 -0.1450 18 2
0.0416 -0.8118 0.0711 100 10
0.0390 -0.7655 -0.1214 12 3
0.0416 -0.8188 0.1007 76 11
0.0400 -0.7871 -0.0968 13 4
0.0405 -0.7990 0.1267 77 12
0.0408 -0.8079 -0.0708 19 5
0.0408 -0.8118 0.1580 100 13
0.0414 -0.8258 -0.0433 38 6
0.0389 -0.7766 0.1795 100 14
0.0409 -0.8189 -0.0143 100 7
0.0391 -0.7853 0.2107 82 15
0.0397 -0.8209 0.0143 100 8
0.0389 -0.8100 0.0425 71 9
0.0366 -0.7648 -0.1488 8 2
0.0387 -0.8080 0.0708 93 10
0.0360 -0.7557 -0.1198 12 3
0.0390 -0.8209 0.1009 80 11
0.0376 -0.7951 -0.0977 13 4
0.0377 -0.7991 0.1267 73 12
0.0382 -0.8120 -0.0711 19 5
0.0371 -0.7923 0.1542 100 13
0.0389 -0.8339 -0.0438 37 6
0.0364 -0.7806 0.1804 100 14
0.0384 -0.8270 -0.0145 100 7
0.0357 -0.7719 0.2071 85 15
0.0369 -0.8251 0.0144 100 8
0.0354 -0.7943 -0.1836 6 1
0.0366 -0.8261 0.0433 78 9
0.0329 -0.7453 -0.1450 9 2
0.0362 -0.8201 0.0718 90 10
0.0338 -0.7677 -0.1217 12 3
0.0355 -0.8091 0.0994 78 11
0.0345 -0.7913 -0.0973 13 4
0.0353 -0.8111 0.1286 75 12
0.0353 -0.8161 -0.0715 18 5
0.0343 -0.7944 0.1546 100 13
0.0349 -0.8121 -0.0426 40 6
0.0337 -0.7846 0.1813 100 14
0.0356 -0.8311 -0.0145 100 7
0.0330 -0.7740 0.2076 82 15
0.0342 -0.8332 0.0146 100 8
0.0334 -0.8162 0.0428 75 9
0.0310 -0.7631 -0.1484 8 2
0.0336 -0.8301 0.0727 80 10
0.0313 -0.7757 -0.1230 11 3
0.0324 -0.8073 0.0992 85 11
0.0311 -0.7736 -0.0951 14 4
0.0325 -0.8132 0.1289 76 12
0.0325 -0.8162 -0.0715 18 5
0.0314 -0.7925 0.1542 100 13
0.0321 -0.8142 -0.0427 40 6
0.0307 -0.7769 0.1795 100 14
0.0329 -0.8372 -0.0146 85 7
0.0303 -0.7741 0.2076 80 15
0.0313 -0.8293 0.0145 100 8
0.0303 -0.8063 0.0423 81 9
0.0287 -0.7691 -0.1496 8 2
0.0307 -0.8263 0.0723 74 10
0.0284 -0.7679 -0.1217 12 3
0.0300 -0.8133 0.0999 82 11
0.0288 -0.7816 -0.0960 14 4
0.0295 -0.8034 0.1273 71 12
0.0301 -0.8243 -0.0722 18 5
0.0291 -0.8005 0.1557 100 13
0.0299 -0.8283 -0.0434 38 6
0.0275 -0.7595 0.1755 100 14
0.0295 -0.8213 -0.0143 99 7
0.0280 -0.7819 0.2096 74 15
0.0288 -0.8374 0.0146 100 8
0.0277 -0.8124 0.0426 75 9
0.0257 -0.7535 -0.1465 8 2
0.0279 -0.8224 0.0720 81 10
0.0258 -0.7660 -0.1214 12 3
0.0275 -0.8214 0.1009 76 11
0.0262 -0.7857 -0.0965 14 4
0.0265 -0.7976 0.1264 69 12
0.0268 -0.8085 -0.0708 19 5
0.0267 -0.8084 0.1572 100 13
0.0271 -0.8244 -0.0432 33 6
0.0252 -0.7732 0.1786 100 14
0.0267 -0.8214 -0.0143 90 7
0.0252 -0.7801 0.2091 85 15
0.0254 -0.8215 0.0143 100 8
0.0202 -0.6584 -0.1521 10 1
0.0249 -0.8145 0.0427 81 9
0.0234 -0.7653 -0.1488 8 2
0.0250 -0.8225 0.0720 72 10
0.0220 -0.7286 -0.1154 9 3
0.0248 -0.8274 0.1016 78 11
0.0240 -0.8056 -0.0990 13 4
0.0237 -0.7977 0.1264 73 12
0.0244 -0.8225 -0.0720 18 5
0.0235 -0.7967 0.1549 100 13
0.0244 -0.8325 -0.0436 37 6
0.0228 -0.7811 0.1804 100 14
0.0240 -0.8295 -0.0145 97 7
0.0223 -0.7724 0.2071 85 15
0.0224 -0.8156 0.0142 100 8
0.0222 -0.8206 0.0430 63 9
0.0203 -0.7517 -0.1462 9 2
0.0220 -0.8186 0.0716 75 10
0.0202 -0.7563 -0.1198 8 3
0.0215 -0.8096 0.0994 78 11
0.0207 -0.7838 -0.0963 14 4
0.0213 -0.8136 0.1289 65 12
0.0213 -0.8146 -0.0713 19 5
0.0209 -0.8047 0.1565 100 13
0.0213 -0.8246 -0.0432 38 6
0.0201 -0.7831 0.1809 100 14
0.0211 -0.8296 -0.0145 87 7
0.0196 -0.7725 0.2071 87 15
0.0200 -0.8356 0.0146 98 8
0.0157 -0.6624 -0.1530 9 1
0.0191 -0.8087 0.0424 59 9
0.0193 -0.8246 0.0722 66 10
0.0173 -0.7465 -0.1183 8 3
0.0189 -0.8216 0.1009 76 11
0.0185 -0.8077 -0.0992 13 4
0.0185 -0.8156 0.1292 65 12
0.0185 -0.8167 -0.0715 18 5
0.0179 -0.7949 0.1546 100 13
0.0184 -0.8247 -0.0432 38 6
0.0172 -0.7754 0.1791 100 14
0.0185 -0.8417 -0.0147 90 7
0.0170 -0.7784 0.2086 87 15
0.0168 -0.8237 0.0144 94 8
0.0127 -0.6274 -0.1449 10 1
0.0160 -0.7987 0.0419 65 9
0.0160 -0.7950 -0.1546 7 2
0.0165 -0.8287 0.0725 69 10
0.0148 -0.7525 -0.1192 8 3
0.0161 -0.8237 0.1012 69 11
0.0147 -0.7601 -0.0934 15 4
0.0155 -0.8078 0.1280 67 12
0.0156 -0.8147 -0.0713 19 5
0.0154 -0.8087 0.1572 100 13
0.0157 -0.8307 -0.0435 37 6
0.0145 -0.7755 0.1791 100 14
0.0154 -0.8297 -0.0145 87 7
0.0145 -0.7919 0.2122 96 15
0.0141 -0.8338 0.0146 80 8
0.0134 -0.8088 0.0424 59 9
0.0127 -0.7675 -0.1492 8 2
0.0135 -0.8247 0.0722 66 10
0.0122 -0.7545 -0.1195 8 3
0.0132 -0.8237 0.1012 69 11
0.0126 -0.7920 -0.0973 13 4
0.0127 -0.8078 0.1280 63 12
0.0126 -0.8028 -0.0702 14 5
0.0125 -0.8068 0.1568 87 13
0.0127 -0.8288 -0.0434 38 6
0.0118 -0.7755 0.1791 100 14
0.0124 -0.8258 -0.0144 87 7
0.0117 -0.7900 0.2117 100 15
0.0112 -0.8298 0.0145 87 8
0.0089 -0.6684 -0.1543 9 1
0.0106 -0.8088 0.0424 53 9
0.0102 -0.7793 -0.1515 8 2
0.0104 -0.8088 0.0708 56 10
0.0095 -0.7466 -0.1183 8 3
0.0104 -0.8277 0.1016 69 11
0.0100 -0.8039 -0.0987 13 4
0.0099 -0.8079 0.1280 63 12
0.0099 -0.8128 -0.0711 14 5
0.0097 -0.8029 0.1561 100 13
0.0098 -0.8288 -0.0434 33 6
0.0092 -0.7892 0.1822 99 14
0.0094 -0.8198 -0.0143 85 7
0.0088 -0.7766 0.2081 100 15
0.0081 -0.8118 0.0142 78 8
0.0063 -0.6450 -0.1489 10 1
0.0078 -0.8168 0.0428 50 9
0.0071 -0.7401 -0.1439 9 2
0.0077 -0.8188 0.0716 51 10
0.0068 -0.7348 -0.1164 9 3
0.0074 -0.8158 0.1002 73 11
0.0069 -0.7781 -0.0955 9 4
0.0071 -0.8138 0.1289 61 12
0.0070 -0.8069 -0.0706 14 5
0.0068 -0.7931 0.1542 100 13
0.0069 -0.8188 -0.0429 34 6
0.0064 -0.7853 0.1813 100 14
0.0068 -0.8438 -0.0147 99 7
0.0062 -0.7882 0.2112 96 15
0.0054 -0.8339 0.0146 84 8
0.0050 -0.8169 0.0428 53 9
0.0048 -0.7873 -0.1530 8 2
0.0049 -0.8189 0.0716 54 10
0.0044 -0.7585 -0.1201 8 3
0.0046 -0.8198 0.1007 66 11
0.0043 -0.8020 -0.0985 9 4
0.0043 -0.8198 0.1298 61 12
0.0044 -0.8308 -0.0727 13 5
0.0040 -0.7990 0.1553 87 13
0.0040 -0.8229 -0.0431 33 6
0.0036 -0.7736 0.1786 100 14
0.0038 -0.8419 -0.0147 90 7
0.0034 -0.7863 0.2107 94 15
0.0025 -0.8279 0.0145 91 8
0.0021 -0.8049 0.0422 53 9
0.0021 -0.7873 -0.1530 8 2
0.0020 -0.8268 0.0723 48 10
0.0017 -0.7704 -0.1220 8 3
0.0017 -0.8198 0.1007 66 11
0.0015 -0.7722 -0.0948 9 4
0.0014 -0.8040 0.1273 63 12
0.0015 -0.8348 -0.0730 13 5
0.0013 -0.8030 0.1561 94 13
0.0012 -0.8329 -0.0436 32 6
0.0009 -0.7775 0.1795 100 14
0.0009 -0.8439 -0.0147 94 7
0.0007 -0.7940 0.2127 94 15
-0.0004 -0.8259 0.0144 76 8
-0.0006 -0.8089 0.0424 53 9
-0.0007 -0.7676 -0.1492 8 2
-0.0009 -0.8268 0.0723 48 10
-0.0009 -0.7664 -0.1214 8 3
-0.0012 -0.8278 0.1016 64 11
-0.0012 -0.7881 -0.0968 9 4
-0.0013 -0.8020 0.1270 63 12
-0.0014 -0.8129 -0.0711 14 5
-0.0016 -0.8108 0.1576 81 13
-0.0017 -0.8349 -0.0438 32 6
-0.0018 -0.7853 0.1813 100 14
-0.0019 -0.8299 -0.0145 92 7
-0.0019 -0.7824 0.2096 90 15
-0.0032 -0.8299 0.0145 84 8
-0.0022 -0.5476 -0.1264 12 1
-0.0035 -0.8269 0.0433 51 9
-0.0033 -0.7676 -0.1492 8 2
-0.0037 -0.8209 0.0718 48 10
-0.0034 -0.7546 -0.1195 8 3
-0.0039 -0.8258 0.1014 60 11
-0.0038 -0.7722 -0.0948 9 4
-0.0041 -0.8138 0.1289 61 12
-0.0042 -0.8049 -0.0704 14 5
-0.0042 -0.7931 0.1542 97 13
-0.0045 -0.8289 -0.0434 23 6
-0.0043 -0.7775 0.1795 93 14
-0.0048 -0.8399 -0.0147 94 7
-0.0046 -0.7824 0.2096 90 15
-0.0061 -0.8319 0.0145 77 8
-0.0063 -0.8268 0.0433 48 9
-0.0057 -0.7480 -0.1454 9 2
-0.0064 -0.8188 0.0716 51 10
-0.0062 -0.7664 -0.1214 8 3
-0.0067 -0.8178 0.1004 61 11
-0.0066 -0.7920 -0.0973 9 4
-0.0070 -0.8138 0.1289 58 12
-0.0070 -0.8129 -0.0711 14 5
-0.0069 -0.7951 0.1546 87 13
-0.0074 -0.8268 -0.0433 28 6
-0.0072 -0.7892 0.1822 96 14
-0.0078 -0.8418 -0.0147 90 7
-0.0074 -0.7804 0.2091 91 15
-0.0090 -0.8298 0.0145 66 8
-0.0061 -0.5515 -0.1273 12 1
-0.0091 -0.8128 0.0426 50 9
-0.0084 -0.7480 -0.1454 9 2
-0.0093 -0.8228 0.0720 51 10
-0.0086 -0.7466 -0.1183 8 3
-0.0096 -0.8198 0.1007 71 11
-0.0094 -0.7960 -0.0977 9 4
-0.0099 -0.8217 0.1302 58 12
-0.0099 -0.8208 -0.0718 13 5
-0.0097 -0.7970 0.1549 87 13
-0.0103 -0.8288 -0.0434 23 6
-0.0098 -0.7814 0.1804 99 14
-0.0108 -0.8478 -0.0148 85 7
-0.0102 -0.7901 0.2117 76 15
-0.0118 -0.8258 0.0144 76 8
-0.0073 -0.5008 -0.1156 13 1
-0.0119 -0.8108 0.0425 46 9
-0.0115 -0.7872 -0.1530 8 2
-0.0124 -0.8327 0.0729 46 10
-0.0113 -0.7545 -0.1195 8 3
-0.0125 -0.8237 0.1012 64 11
-0.0117 -0.7642 -0.0938 10 4
-0.0126 -0.8118 0.1286 63 12
-0.0129 -0.8287 -0.0725 13 5
-0.0127 -0.8107 0.1576 81 13
-0.0132 -0.8328 -0.0436 23 6
-0.0124 -0.7736 0.1786 84 14
-0.0135 -0.8318 -0.0145 78 7
-0.0129 -0.7881 0.2112 72 15
-0.0148 -0.8337 0.0146 66 8
-0.0090 -0.5007 -0.1156 13 1
-0.0147 -0.8108 0.0425 46 9
-0.0136 -0.7479 -0.1454 9 2
-0.0150 -0.8207 0.0718 51 10
-0.0141 -0.7624 -0.1208 8 3
-0.0155 -0.8316 0.1021 63 11
-0.0149 -0.7919 -0.0973 9 4
-0.0154 -0.8098 0.1283 60 12
-0.0150 -0.7888 -0.0690 15 5
-0.0157 -0.8185 0.1591 87 13
-0.0161 -0.8327 -0.0436 23 6
-0.0154 -0.7891 0.1822 93 14
-0.0163 -0.8277 -0.0145 83 7
-0.0156 -0.7842 0.2102 72 15
-0.0176 -0.8257 0.0144 65 8
-0.0176 -0.8147 0.0427 46 9
-0.0174 -0.8028 -0.1561 7 2
-0.0180 -0.8247 0.0722 48 10
-0.0166 -0.7544 -0.1195 8 3
-0.0183 -0.8276 0.1016 64 11
-0.0170 -0.7621 -0.0936 10 4
-0.0184 -0.8156 0.1292 58 12
-0.0181 -0.8027 -0.0702 14 5
-0.0181 -0.7988 0.1553 84 13
-0.0191 -0.8346 -0.0438 23 6
-0.0182 -0.7910 0.1827 83 14
-0.0194 -0.8356 -0.0146 83 7
-0.0183 -0.7803 0.2091 78 15
-0.0205 -0.8256 0.0144 68 8
-0.0209 -0.8306 0.0435 45 9
-0.0193 -0.7674 -0.1492 8 2
-0.0209 -0.8266 0.0723 48 10
-0.0193 -0.7583 -0.1201 8 3
-0.0212 -0.8255 0.1014 55 11
-0.0203 -0.7858 -0.0965 9 4
-0.0215 -0.8274 0.1311 52 12
-0.0210 -0.8066 -0.0706 14 5
-0.0207 -0.7909 0.1538 83 13
-0.0218 -0.8266 -0.0433 23 6
-0.0210 -0.7929 0.1831 77 14
-0.0224 -0.8376 -0.0146 76 7
-0.0210 -0.7821 0.2096 72 15
-0.0234 -0.8275 0.0145 59 8
-0.0234 -0.8185 0.0429 48 9
-0.0213 -0.7438 -0.1446 9 2
-0.0238 -0.8265 0.0723 48 10
-0.0213 -0.7345 -0.1164 9 3
-0.0238 -0.8155 0.1002 63 11
-0.0223 -0.7619 -0.0936 10 4
-0.0244 -0.8273 0.1311 52 12
-0.0240 -0.8145 -0.0713 14 5
-0.0237 -0.7987 0.1553 80 13
-0.0246 -0.8225 -0.0431 23 6
-0.0237 -0.7889 0.1822 90 14
-0.0254 -0.8395 -0.0147 72 7
-0.0238 -0.7820 0.2096 70 15
-0.0267 -0.8414 0.0147 64 8
-0.0175 -0.5473 -0.1264 12 1
-0.0262 -0.8165 0.0428 43 9
-0.0246 -0.7672 -0.1492 8 2
-0.0270 -0.8344 0.0730 63 10
-0.0251 -0.7739 -0.1226 8 3
-0.0271 -0.8293 0.1019 63 11
-0.0251 -0.7658 -0.0941 10 4
-0.0269 -0.8154 0.1292 54 12
-0.0268 -0.8125 -0.0711 14 5
-0.0269 -0.8104 0.1576 74 13
-0.0275 -0.8244 -0.0432 19 6
-0.0262 -0.7830 0.1809 84 14
-0.0280 -0.8314 -0.0145 74 7
-0.0269 -0.7955 0.2133 72 15
-0.0298 -0.8453 0.0148 64 8
-0.0293 -0.8223 0.0431 45 9
-0.0273 -0.7671 -0.1492 8 2
-0.0295 -0.8243 0.0722 75 10
-0.0277 -0.7699 -0.1220 8 3
-0.0298 -0.8253 0.1014 64 11
-0.0284 -0.7816 -0.0960 9 4
-0.0298 -0.8153 0.1292 50 12
-0.0294 -0.8064 -0.0706 14 5
-0.0296 -0.8064 0.1568 70 13
-0.0307 -0.8323 -0.0436 18 6
-0.0293 -0.7906 0.1827 86 14
-0.0306 -0.8233 -0.0144 71 7
-0.0294 -0.7857 0.2107 68 15
-0.0325 -0.8372 0.0146 60 8
-0.0322 -0.8242 0.0432 51 9
-0.0292 -0.7474 -0.1454 9 2
-0.0323 -0.8222 0.0720 75 10
-0.0294 -0.7461 -0.1183 8 3
-0.0328 -0.8271 0.1016 64 11
-0.0314 -0.7875 -0.0968 9 4
-0.0326 -0.8152 0.1292 50 12
-0.0322 -0.8043 -0.0704 14 5
-0.0320 -0.7964 0.1549 70 13
-0.0337 -0.8362 -0.0439 18 6
-0.0319 -0.7886 0.1822 81 14
-0.0339 -0.8332 -0.0146 69 7
-0.0320 -0.7837 0.2102 72 15
-0.0351 -0.8311 0.0145 63 8
-0.0351 -0.8281 0.0434 51 9
-0.0337 -0.7905 -0.1538 7 2
-0.0352 -0.8221 0.0720 78 10
-0.0331 -0.7697 -0.1220 8 3
-0.0356 -0.8250 0.1014 60 11
-0.0346 -0.7992 -0.0982 9 4
-0.0355 -0.8190 0.1298 54 12
-0.0351 -0.8081 -0.0708 14 5
-0.0351 -0.8042 0.1565 70 13
-0.0365 -0.8321 -0.0436 18 6
-0.0350 -0.7943 0.1836 69 14
-0.0368 -0.8351 -0.0146 64 7
-0.0349 -0.7894 0.2117 66 15
-0.0379 -0.8310 0.0145 63 8
-0.0378 -0.8240 0.0432 57 9
-0.0364 -0.7904 -0.1538 7 2
-0.0380 -0.8200 0.0718 63 10
-0.0354 -0.7656 -0.1214 8 3
-0.0384 -0.8269 0.1016 64 11
-0.0363 -0.7793 -0.0958 9 4
-0.0391 -0.8347 0.1323 47 12
-0.0389 -0.8279 -0.0725 13 5
-0.0377 -0.8021 0.1561 66 13
-0.0391 -0.8299 -0.0435 18 6
-0.0377 -0.7961 0.1840 66 14
-0.0396 -0.8329 -0.0146 60 7
-0.0376 -0.7892 0.2117 64 15
-0.0415 -0.8449 0.0148 64 8
-0.0399 -0.8079 0.0424 59 9
-0.0356 -0.7196 -0.1401 9 2
-0.0417 -0.8398 0.0736 66 10
-0.0367 -0.7379 -0.1170 8 3
-0.0408 -0.8168 0.1004 66 11
-0.0405 -0.8069 -0.0992 8 4
-0.0406 -0.8069 0.1280 52 12
-0.0408 -0.8119 -0.0711 14 5
-0.0412 -0.8157 0.1588 61 13
-0.0422 -0.8338 -0.0438 18 6
-0.0399 -0.7843 0.1813 81 14
-0.0425 -0.8328 -0.0146 60 7
-0.0406 -0.7930 0.2127 62 15
-0.0437 -0.8307 0.0145 63 8
-0.0429 -0.8098 0.0425 56 9
-0.0391 -0.7391 -0.1439 9 2
-0.0440 -0.8277 0.0725 60 10
-0.0406 -0.7614 -0.1208 8 3
-0.0449 -0.8405 0.1033 56 11
-0.0420 -0.7830 -0.0963 9 4
-0.0431 -0.8008 0.1270 52 12
-0.0427 -0.7938 -0.0696 10 5
-0.0439 -0.8136 0.1584 60 13
-0.0447 -0.8257 -0.0433 19 6
-0.0430 -0.7920 0.1831 60 14
-0.0447 -0.8207 -0.0143 61 7
-0.0429 -0.7851 0.2107 64 15
-0.0468 -0.8346 0.0146 63 8
-0.0458 -0.8116 0.0426 53 9
-0.0446 -0.7899 -0.1538 7 2
-0.0463 -0.8176 0.0716 57 10
-0.0421 -0.7415 -0.1176 8 3
-0.0481 -0.8443 0.1038 59 11
-0.0446 -0.7809 -0.0960 9 4
-0.0462 -0.8066 0.1280 52 12
-0.0459 -0.8016 -0.0702 9 5
-0.0465 -0.8095 0.1576 60 13
-0.0485 -0.8414 -0.0442 18 6
-0.0462 -0.7996 0.1849 69 14
-0.0482 -0.8305 -0.0145 60 7
-0.0453 -0.7792 0.2091 63 15
-0.0491 -0.8244 0.0144 61 8
-0.0491 -0.8194 0.0430 48 9
-0.0473 -0.7898 -0.1538 7 2
-0.0491 -0.8174 0.0716 51 10
-0.0435 -0.7217 -0.1145 9 3
-0.0498 -0.8243 0.1014 60 11
-0.0475 -0.7827 -0.0963 9 4
-0.0494 -0.8124 0.1289 47 12
-0.0489 -0.8034 -0.0704 9 5
-0.0483 -0.7917 0.1542 61 13
-0.0507 -0.8293 -0.0435 18 6
-0.0486 -0.7916 0.1831 54 14
-0.0517 -0.8403 -0.0147 67 7
-0.0488 -0.7906 0.2122 58 15
-0.0529 -0.8382 0.0147 54 8
-0.0524 -0.8252 0.0433 54 9
-0.0506 -0.7974 -0.1553 7 2
-0.0524 -0.8232 0.0722 54 10
-0.0483 -0.7570 -0.1201 4 3
-0.0527 -0.8241 0.1014 55 11
-0.0498 -0.7766 -0.0955 9 4
-0.0522 -0.8122 0.1289 47 12
-0.0518 -0.8053 -0.0706 9 5
-0.0516 -0.7993 0.1557 63 13
-0.0535 -0.8271 -0.0434 14 6
-0.0513 -0.7915 0.1831 63 14
-0.0553 -0.8501 -0.0149 61 7
-0.0520 -0.7981 0.2143 58 15
-0.0566 -0.8500 0.0149 52 8
-0.0550 -0.8210 0.0431 51 9
-0.0382 -0.5700 -0.1111 13 2
-0.0560 -0.8349 0.0732 51 10
-0.0520 -0.7726 -0.1226 4 3
-0.0556 -0.8239 0.1014 60 11
-0.0528 -0.7803 -0.0960 9 4
-0.0551 -0.8120 0.1289 47 12
-0.0555 -0.8190 -0.0718 9 5
-0.0547 -0.8050 0.1568 57 13
-0.0573 -0.8409 -0.0442 18 6
-0.0534 -0.7816 0.1809 60 14
-0.0573 -0.8359 -0.0146 58 7
-0.0556 -0.8095 0.2174 48 15
-0.0586 -0.8358 0.0146 54 8
-0.0575 -0.8169 0.0429 48 9
-0.0451 -0.6404 -0.1248 12 2
-0.0583 -0.8248 0.0723 48 10
-0.0539 -0.7606 -0.1208 4 3
-0.0589 -0.8297 0.1021 49 11
-0.0555 -0.7802 -0.0960 9 4
-0.0575 -0.8059 0.1280 48 12
-0.0577 -0.8088 -0.0709 9 5
-0.0584 -0.8166 0.1591 52 13
-0.0598 -0.8347 -0.0439 13 6
-0.0570 -0.7930 0.1836 57 14
-0.0599 -0.8317 -0.0146 55 7
-0.0568 -0.7861 0.2112 42 15
-0.0612 -0.8316 0.0146 45 8
-0.0603 -0.8147 0.0428 50 9
-0.0639 -0.8634 -0.1683 5 2
-0.0614 -0.8286 0.0727 48 10
-0.0588 -0.7919 -0.1258 3 3
-0.0627 -0.8413 0.1036 51 11
-0.0609 -0.8156 -0.1004 8 4
-0.0612 -0.8175 0.1298 43 12
-0.0598 -0.7987 -0.0701 10 5
-0.0601 -0.8007 0.1561 59 13
-0.0633 -0.8425 -0.0443 13 6
-0.0600 -0.7967 0.1845 60 14
-0.0631 -0.8355 -0.0146 54 7
-0.0589 -0.7782 0.2091 46 15
-0.0637 -0.8254 0.0145 52 8
-0.0640 -0.8264 0.0434 42 9
-0.0639 -0.8224 0.0722 48 10
-0.0582 -0.7484 -0.1189 4 3
-0.0647 -0.8292 0.1021 54 11
-0.0628 -0.8035 -0.0990 8 4
-0.0640 -0.8173 0.1298 43 12
-0.0627 -0.8005 -0.0702 9 5
-0.0630 -0.8025 0.1565 59 13
-0.0653 -0.8303 -0.0436 13 6
-0.0634 -0.8043 0.1863 52 14
-0.0659 -0.8333 -0.0146 50 7
-0.0624 -0.7877 0.2117 42 15
-0.0677 -0.8391 0.0147 43 8
-0.0667 -0.8242 0.0433 39 9
-0.0585 -0.7221 -0.1408 9 2
-0.0674 -0.8301 0.0729 46 10
-0.0596 -0.7324 -0.1164 4 3
-0.0674 -0.8270 0.1019 49 11
-0.0624 -0.7637 -0.0941 10 4
-0.0680 -0.8308 0.1320 35 12
-0.0660 -0.8062 -0.0708 9 5
-0.0665 -0.8101 0.1580 57 13
-0.0674 -0.8201 -0.0431 14 6
-0.0650 -0.7885 0.1827 57 14
-0.0701 -0.8490 -0.0149 48 7
-0.0652 -0.7874 0.2117 40 15
-0.0713 -0.8469 0.0148 42 8
-0.0684 -0.8100 0.0426 40 9
-0.0564 -0.6671 -0.1301 11 2
-0.0706 -0.8338 0.0732 43 10
-0.0635 -0.7480 -0.1189 4 3
-0.0711 -0.8367 0.1031 43 11
-0.0647 -0.7595 -0.0936 5 4
-0.0699 -0.8188 0.1302 36 12
-0.0698 -0.8179 -0.0718 9 5
-0.0698 -0.8157 0.1591 55 13
-0.0711 -0.8298 -0.0436 13 6
-0.0674 -0.7844 0.1818 57 14
-0.0715 -0.8308 -0.0146 46 7
-0.0687 -0.7968 0.2143 38 15
-0.0739 -0.8426 0.0148 43 8
-0.0720 -0.8177 0.0430 39 9
-0.0721 -0.8177 0.0718 48 10
-0.0675 -0.7635 -0.1214 4 3
-0.0732 -0.8265 0.1019 45 11
-0.0677 -0.7632 -0.0941 5 4
-0.0731 -0.8225 0.1308 38 12
-0.0697 -0.7839 -0.0689 10 5
-0.0723 -0.8115 0.1584 54 13
-0.0747 -0.8375 -0.0441 13 6
-0.0706 -0.7900 0.1831 57 14
-0.0748 -0.8345 -0.0146 45 7
-0.0703 -0.7831 0.2107 38 15
-0.0763 -0.8364 0.0147 43 8
-0.0759 -0.8294 0.0436 37 9
-0.0762 -0.8313 0.0730 43 10
-0.0690 -0.7514 -0.1195 4 3
-0.0770 -0.8362 0.1031 43 11
-0.0678 -0.7353 -0.0907 5 4
-0.0753 -0.8143 0.1295 36 12
-0.0754 -0.8154 -0.0716 9 5
-0.0739 -0.7976 0.1557 52 13
-0.0773 -0.8333 -0.0439 13 6
-0.0739 -0.7956 0.1845 51 14
-0.0771 -0.8283 -0.0145 41 7
-0.0727 -0.7790 0.2096 38 15
-0.0798 -0.8421 0.0148 43 8
-0.0798 -0.8391 0.0442 34 9
-0.0788 -0.8271 0.0727 48 10
-0.0672 -0.7040 -0.1120 4 3
-0.0791 -0.8280 0.1021 45 11
-0.0753 -0.7865 -0.0970 4 4
-0.0790 -0.8239 0.1311 35 12
-0.0759 -0.7913 -0.0696 5 5
-0.0770 -0.8012 0.1565 56 13
-0.0798 -0.8290 -0.0436 13 6
-0.0769 -0.7972 0.1849 51 14
-0.0814 -0.8419 -0.0148 36 7
-0.0758 -0.7826 0.2107 38 15
-0.0829 -0.8438 0.0148 45 8
-0.0812 -0.8249 0.0434 39 9
-0.0822 -0.8328 0.0732 40 10
-0.0743 -0.7509 -0.1195 4 3
-0.0811 -0.8178 0.1009 42 11
-0.0796 -0.8020 -0.0990 4 4
-0.0818 -0.8236 0.1311 31 12
-0.0795 -0.7990 -0.0702 4 5
-0.0808 -0.8107 0.1584 50 13
-0.0813 -0.8148 -0.0429 14 6
-0.0785 -0.7853 0.1822 51 14
-0.0852 -0.8516 -0.0149 35 7
-0.0793 -0.7920 0.2133 36 15
-0.0865 -0.8515 0.0149 37 8
-0.0836 -0.8206 0.0432 33 9
-0.0856 -0.8364 0.0736 38 10
-0.0768 -0.7507 -0.1195 4 3
-0.0862 -0.8412 0.1038 38 11
-0.0782 -0.7622 -0.0941 5 4
-0.0838 -0.8155 0.1298 32 12
-0.0839 -0.8146 -0.0716 4 5
-0.0829 -0.8046 0.1572 47 13
-0.0857 -0.8304 -0.0438 13 6
-0.0815 -0.7889 0.1831 48 14
-0.0859 -0.8294 -0.0146 37 7
-0.0825 -0.7955 0.2143 36 15
-0.0893 -0.8492 0.0149 35 8
-0.0880 -0.8342 0.0440 28 9
-0.0869 -0.8223 0.0723 37 10
-0.0690 -0.6522 -0.1039 5 3
-0.0881 -0.8311 0.1026 36 11
-0.0838 -0.7896 -0.0975 4 4
-0.0861 -0.8093 0.1289 29 12
-0.0847 -0.7965 -0.0701 5 5
-0.0857 -0.8043 0.1572 43 13
-0.0898 -0.8421 -0.0444 13 6
-0.0843 -0.7886 0.1831 48 14
-0.0883 -0.8252 -0.0145 32 7
-0.0842 -0.7856 0.2117 34 15
-0.0920 -0.8469 0.0149 35 8
-0.0894 -0.8200 0.0432 27 9
-0.0893 -0.8180 0.0720 39 10
-0.0713 -0.6519 -0.1039 5 3
-0.0927 -0.8465 0.1046 33 11
-0.0831 -0.7577 -0.0936 5 4
-0.0889 -0.8090 0.1289 25 12
-0.0901 -0.8199 -0.0722 4 5
-0.0885 -0.8040 0.1572 47 13
-0.0910 -0.8259 -0.0435 9 6
-0.0864 -0.7825 0.1818 45 14
-0.0914 -0.8268 -0.0145 32 7
-0.0861 -0.7776 0.2096 32 15
-0.0941 -0.8386 0.0147 33 8
-0.0933 -0.8296 0.0438 25 9
-0.0930 -0.8256 0.0727 34 10
-0.0736 -0.6517 -0.1039 5 3
-0.0943 -0.8344 0.1031 30 11
-0.0907 -0.8008 -0.0990 4 4
-0.0924 -0.8146 0.1298 21 12
-0.0896 -0.7899 -0.0696 5 5
-0.0911 -0.8017 0.1568 40 13
-0.0946 -0.8315 -0.0439 9 6
-0.0913 -0.8016 0.1863 41 14
-0.0952 -0.8345 -0.0147 22 7
-0.0893 -0.7812 0.2107 30 15
-0.0972 -0.8403 0.0148 27 8
-0.0958 -0.8253 0.0435 27 9
-0.0962 -0.8272 0.0729 31 10
-0.0961 -0.8242 0.1019 31 11
-0.0902 -0.7729 -0.0955 4 4
-0.0966 -0.8260 0.1317 21 12
-0.0914 -0.7817 -0.0689 5 5
-0.0943 -0.8053 0.1576 37 13
-0.0949 -0.8093 -0.0427 10 6
-0.0923 -0.7858 0.1827 43 14
-0.0974 -0.8282 -0.0146 18 7
-0.0925 -0.7847 0.2117 28 15
-0.0997 -0.8359 0.0147 23 8
-0.0983 -0.8230 0.0434 21 9
-0.0993 -0.8289 0.0730 25 10
-0.0983 -0.8179 0.1012 27 11
-0.0885 -0.7371 -0.0912 5 4
-0.0982 -0.8159 0.1302 18 12
-0.0980 -0.8130 -0.0716 4 5
-0.0964 -0.7991 0.1565 31 13
-0.0987 -0.8169 -0.0431 9 6
-0.0942 -0.7797 0.1813 42 14
-0.0992 -0.8199 -0.0144 18 7
-0.0958 -0.7901 0.2133 24 15
-0.1027 -0.8376 0.0147 23 8
-0.1010 -0.8227 0.0434 21 9
-0.1013 -0.8226 0.0725 23 10
-0.1027 -0.8314 0.1029 21 11
-0.1032 -0.8353 -0.1033 3 4
-0.1006 -0.8136 0.1298 18 12
-0.1026 -0.8285 -0.0730 4 5
-0.1010 -0.8144 0.1595 26 13
-0.1004 -0.8087 -0.0427 10 6
-0.0975 -0.7852 0.1827 37 14
-0.1012 -0.8136 -0.0143 14 7
-0.0979 -0.7860 0.2122 22 15
-0.1037 -0.8234 0.0145 17 8
-0.1031 -0.8164 0.0431 18 9
-0.1033 -0.8164 0.0720 21 10
-0.1057 -0.8330 0.1031 17 11
-0.1032 -0.8113 0.1295 14 12
-0.1015 -0.7965 -0.0702 4 5
-0.1026 -0.8043 0.1576 27 13
-0.1053 -0.8242 -0.0435 4 6
-0.1005 -0.7867 0.1831 25 14
-0.1033 -0.8073 -0.0142 14 7
-0.0984 -0.7684 0.2076 17 15
-0.1062 -0.8190 0.0144 14 8
-0.1061 -0.8160 0.0431 12 9
-0.1055 -0.8100 0.0715 15 10
-0.1059 -0.8110 0.1004 19 11
-0.1057 -0.8070 0.1289 10 12
-0.1090 -0.8317 -0.0734 4 5
-0.1058 -0.8059 0.1580 20 13
-0.1075 -0.8178 -0.0432 4 6
-0.1036 -0.7883 0.1836 23 14
-0.1078 -0.8188 -0.0144 9 7
-0.1015 -0.7699 0.2081 12 15
-0.1098 -0.8226 0.0145 14 8
-0.1075 -0.8037 0.0425 12 9
-0.1077 -0.8037 0.0709 12 10
-0.1065 -0.7929 0.0982 15 11
-0.1086 -0.8066 0.1289 10 12
-0.1135 -0.8431 -0.0744 4 5
-0.1063 -0.7880 0.1546 14 13
-0.1074 -0.7957 -0.0421 5 6
-0.1010 -0.7474 0.1741 16 14
-0.1121 -0.8283 -0.0146 9 7
-0.1030 -0.7600 0.2055 8 15
-0.1132 -0.8262 0.0146 10 8
-0.1079 -0.7855 0.0416 9 9
-0.1102 -0.8014 0.0708 9 10
-0.1112 -0.8063 0.0999 9 11
-0.1120 -0.8101 0.1295 7 12
-0.1121 -0.8112 -0.0716 4 5
-0.1104 -0.7973 0.1565 10 13
-0.1086 -0.7834 -0.0415 5 6
-0.1034 -0.7451 0.1737 9 14
-0.1134 -0.8160 -0.0144 4 7
-0.1089 -0.7826 0.2117 6 15
-0.1138 -0.8099 0.0143 7 8
-0.1097 -0.7792 0.0412 6 9
-0.1116 -0.7911 0.0699 6 10
-0.1148 -0.8118 0.1007 9 11
-0.1149 -0.8117 0.1298 3 12
-0.1107 -0.7794 0.1530 7 13
-0.1186 -0.8345 -0.0442 4 6
-0.1076 -0.7563 0.1764 6 14
-0.1144 -0.8038 -0.0142 4 7
-0.1098 -0.7708 0.2086 4 15
-0.1142 -0.7937 0.0140 3 8
-0.1141 -0.7907 0.0419 3 9
-0.1144 -0.7907 0.0699 3 10
-0.1200 -0.8269 0.1323 3 12
-0.1135 -0.7810 0.1534 3 13
-0.1169 -0.8022 0.1872 2 14
-0.1264 -0.8667 -0.0153 4 7
-0.1100 -0.7532 0.2039 2 15