-0.0200 1.1928 0.5932 -0.0698 4
-0.0200 1.7067 0.8483 0.4400 31
-0.0200 1.1999 0.5961 -0.0234 6
-0.0200 1.6766 0.8326 0.5016 31
-0.0200 1.2026 0.5951 0.0234 1
-0.0200 1.1781 0.5825 0.0689 1
-0.0200 1.2199 0.6029 0.1191 1
-0.0200 1.2246 0.6047 0.1677 1
-0.0200 1.1962 0.5904 -0.1638 2
-0.0200 1.1940 0.5891 0.2109 1
-0.0200 1.1739 0.5792 -0.1145 4
-0.0200 1.6939 0.8353 0.3671 34
-0.0200 1.1931 0.5881 -0.0697 6
-0.0200 1.7026 0.8389 0.4382 32
-0.0200 1.2073 0.5946 -0.0235 8
-0.0200 1.6830 0.8285 0.5026 33
-0.0200 1.1813 0.5795 0.0230 1
-0.0200 1.2087 0.5926 0.0705 1
-0.0200 1.2149 0.5952 0.1184 1
-0.0200 1.2017 0.5882 0.1643 1
-0.0200 1.1947 0.5845 -0.1633 2
-0.0200 1.2155 0.5947 0.2143 1
-0.0200 1.1884 0.5812 -0.1157 4
-0.0200 1.7003 0.8311 0.3679 33
-0.0200 1.1898 0.5813 -0.0694 6
-0.0200 1.7055 0.8330 0.4382 33
-0.0200 1.2165 0.5941 -0.0236 10
-0.0200 1.6857 0.8229 0.5026 32
-0.0200 1.1994 0.5834 0.0233 1
-0.0200 1.1640 0.5657 0.0678 1
-0.0200 1.2385 0.6014 0.1204 1
-0.0200 1.2144 0.5894 0.1657 1
-0.0200 1.1859 0.5753 -0.1618 3
-0.0200 1.2175 0.5904 0.2143 1
-0.0200 1.2012 0.5822 -0.1168 4
-0.0200 1.7031 0.8255 0.3679 33
-0.0200 1.1899 0.5765 -0.0693 10
-0.0200 1.6978 0.8222 0.4355 33
-0.0200 1.2203 0.5907 -0.0237 19
-0.0200 1.6816 0.8136 0.5006 33
-0.0200 1.2159 0.5862 0.0236 1
-0.0200 1.1785 0.5679 0.0686 2
-0.0200 1.1884 0.5722 0.1154 2
-0.0200 1.1985 0.5766 0.1633 1
-0.0200 1.1879 0.5712 -0.1618 3
-0.0200 1.2141 0.5838 0.2134 1
-0.0200 1.2014 0.5774 -0.1166 4
-0.0200 1.7130 0.8229 0.3694 34
-0.0200 1.2063 0.5793 -0.0701 12
-0.0200 1.6971 0.8146 0.4346 33
-0.0200 1.1989 0.5754 -0.0232 22
-0.0200 1.6843 0.8081 0.5006 34
-0.0200 1.2088 0.5779 0.0234 1
-0.0200 1.2039 0.5750 0.0699 10
-0.0200 1.1814 0.5637 0.1145 2
-0.0200 1.2112 0.5777 0.1648 1
-0.0200 1.2077 0.5758 -0.1643 1
-0.0200 1.2108 0.5770 0.2124 1
-0.0200 1.1872 0.5655 -0.1150 4
-0.0200 1.7122 0.8156 0.3686 34
-0.0200 1.2028 0.5727 -0.0698 12
-0.0200 1.7068 0.8123 0.4364 33
-0.0200 1.2027 0.5721 -0.0232 31
-0.0200 1.6731 0.7955 0.4964 31
-0.0200 1.2073 0.5717 0.0233 2
-0.0200 1.1897 0.5631 0.0690 3
-0.0200 1.1924 0.5639 0.1154 1
-0.0200 1.2133 0.5733 0.1648 1
-0.0200 1.1811 0.5578 -0.1604 1
-0.0200 1.2218 0.5770 0.2140 1
-0.0200 1.1837 0.5588 -0.1145 2
-0.0200 1.6974 0.8009 0.3648 34
-0.0200 1.2085 0.5700 -0.0700 12
-0.0200 1.7028 0.8027 0.4346 33
-0.0200 1.2101 0.5705 -0.0234 36
-0.0200 1.6794 0.7913 0.4975 31
-0.0200 1.1965 0.5618 0.0231 1
-0.0200 1.1681 0.5479 0.0676 1
-0.0200 1.1961 0.5606 0.1156 1
-0.0200 1.1685 0.5473 0.1584 1
-0.0200 1.2327 0.5769 0.2156 1
-0.0200 1.1965 0.5597 -0.1156 1
-0.0200 1.6965 0.7936 0.3641 34
-0.0200 1.1941 0.5583 -0.0691 6
-0.0200 1.7054 0.7971 0.4346 33
-0.0200 1.2157 0.5679 -0.0234 31
-0.0200 1.6769 0.7830 0.4959 31
-0.0200 1.2075 0.5618 0.0232 1
-0.0200 1.1736 0.5455 0.0678 1
-0.0200 1.2197 0.5667 0.1177 1
-0.0200 1.1866 0.5508 0.1606 1
-0.0200 1.2240 0.5676 0.2137 1
-0.0200 1.2345 0.5725 -0.1191 1
-0.0200 1.7028 0.7893 0.3648 32
-0.0200 1.1815 0.5475 -0.0682 3
-0.0200 1.6976 0.7862 0.4319 32
-0.0200 1.2322 0.5704 -0.0237 19
-0.0200 1.6779 0.7764 0.4954 33
-0.0200 1.2113 0.5584 0.0233 2
-0.0200 1.1828 0.5448 0.0682 2
-0.0200 1.1945 0.5499 0.1150 2
-0.0200 1.1975 0.5508 0.1618 2
-0.0200 1.1936 0.5485 0.2081 1
-0.0200 1.7127 0.7867 0.3664 32
-0.0200 1.6968 0.7786 0.4310 33
-0.0200 1.2233 0.5611 -0.0235 2
-0.0200 1.6823 0.7713 0.4959 31
-0.0200 1.2078 0.5517 0.0232 1
-0.0200 1.1756 0.5365 0.0677 2
-0.0200 1.2018 0.5482 0.1156 3
-0.0200 1.2211 0.5565 0.1648 5
-0.0200 1.2153 0.5533 0.2115 4
-0.0200 1.7154 0.7807 0.3664 32
-0.0200 1.2290 0.5590 -0.0708 1
-0.0200 1.6995 0.7727 0.4310 33
-0.0200 1.6745 0.7606 0.4928 30
-0.0200 1.2060 0.5458 0.0231 5
-0.0200 1.2084 0.5464 0.0695 11
-0.0200 1.2146 0.5489 0.1166 10
-0.0200 1.2248 0.5530 0.1650 9
-0.0200 1.2226 0.5515 0.2124 9
-0.0200 1.1823 0.5333 -0.1135 1
-0.0200 1.7038 0.7682 0.3633 32
-0.0200 1.3183 0.5941 -0.0758 1
-0.0200 1.7093 0.7700 0.4328 31
-0.0200 1.6824 0.7572 0.4943 31
-0.0200 1.2262 0.5498 0.0235 4
-0.0200 1.2121 0.5430 0.0696 6
-0.0200 1.2256 0.5488 0.1175 6
-0.0200 1.2105 0.5415 0.1628 5
-0.0200 1.2191 0.5448 0.2115 5
-0.0200 1.2278 0.5487 -0.1177 1
-0.0200 1.6957 0.7575 0.3610 32
-0.0200 1.7048 0.7608 0.4310 33
-0.0200 1.6797 0.7489 0.4928 31
-0.0200 1.2263 0.5447 0.0234 2
-0.0200 1.1976 0.5314 0.0687 3
-0.0200 1.2202 0.5413 0.1168 3
-0.0200 1.1942 0.5292 0.1604 4
-0.0200 1.2283 0.5438 0.2128 4
-0.0200 1.2771 0.5654 -0.1222 1
-0.0200 1.7020 0.7531 0.3618 34
-0.0200 1.7003 0.7517 0.4292 35
-0.0200 1.6876 0.7454 0.4943 32
-0.0200 1.2428 0.5468 0.0237 1
-0.0200 1.1885 0.5224 0.0680 1
-0.0200 1.2458 0.5474 0.1191 1
-0.0200 1.2397 0.5442 0.1662 1
-0.0200 1.2211 0.5355 0.2112 1
-0.0200 1.7046 0.7472 0.3618 34
-0.0200 1.6976 0.7434 0.4279 37
-0.0200 1.6814 0.7356 0.4918 31
-0.0200 1.6982 0.7373 0.3599 37
-0.0200 1.6930 0.7344 0.4261 35
-0.0200 1.6751 0.7259 0.4892 32
-0.0200 1.6953 0.7291 0.3587 35
-0.0200 1.7045 0.7323 0.4283 35
-0.0200 1.6829 0.7223 0.4907 31
-0.0200 1.6961 0.7224 0.3583 37
-0.0200 1.7053 0.7256 0.4279 35
-0.0200 1.6837 0.7157 0.4902 32
-0.0200 1.7004 0.7172 0.3587 36
-0.0200 1.6915 0.7131 0.4238 35
-0.0200 1.6789 0.7071 0.4881 32
-0.0200 1.7100 0.7146 0.3602 36
-0.0200 1.6903 0.7060 0.4229 33
-0.0200 1.6955 0.7075 0.4923 31
-0.0200 1.7015 0.7044 0.3580 36
-0.0200 1.6981 0.7024 0.4243 36
-0.0200 1.6747 0.6920 0.4855 31
-0.0200 1.7235 0.7068 0.2950 1
-0.0200 1.6876 0.6918 0.3545 37
-0.0200 1.7042 0.6979 0.4252 36
-0.0200 1.6789 0.6869 0.4861 31
-0.0200 1.6911 0.6867 0.2891 2
-0.0200 1.6845 0.6837 0.3534 36
-0.0200 1.7030 0.6905 0.4243 35
-0.0200 1.6849 0.6825 0.4871 31
-0.0200 1.6917 0.6801 0.2888 5
-0.0200 1.6960 0.6814 0.3553 37
-0.0200 1.6909 0.6787 0.4207 36
-0.0200 1.6873 0.6766 0.4871 34
-0.0200 1.6794 0.6683 0.2863 10
-0.0200 1.7130 0.6813 0.3583 37
-0.0200 1.6897 0.6714 0.4198 36
-0.0200 1.6824 0.6678 0.4850 32
-0.0200 1.6835 0.6632 0.2866 19
-0.0200 1.7099 0.6732 0.3572 34
-0.0200 1.6902 0.6648 0.4193 33
-0.0200 1.6758 0.6584 0.4824 32
-0.0200 1.6877 0.6580 0.2869 20
-0.0200 1.6939 0.6601 0.3534 34
-0.0200 1.6925 0.6589 0.4193 34
-0.0200 1.6907 0.6575 0.4861 26
-0.0200 1.6863 0.6507 0.2863 31
-0.0200 1.6889 0.6513 0.3519 36
-0.0200 1.7021 0.6558 0.4211 33
-0.0200 1.7164 0.6606 0.4928 9
-0.0200 1.7015 0.6497 0.2885 32
-0.0200 1.6985 0.6482 0.3534 34
-0.0200 1.6825 0.6415 0.4157 35
-0.0200 1.8884 0.7192 0.5414 19
-0.0200 1.7037 0.6438 0.2885 31
-0.0200 1.7007 0.6423 0.3534 34
-0.0200 1.6957 0.6397 0.4184 34
-0.0200 1.8349 0.6915 0.5254 23
-0.0200 1.1968 0.6156 0.0235 1
-0.0200 1.1440 0.5879 0.0674 1
-0.0200 1.1874 0.6100 0.1168 1
-0.0200 1.1656 0.5983 0.1609 1
-0.0200 1.1869 0.6089 -0.1638 1
-0.0200 1.2216 0.6265 0.2174 1
-0.0200 1.1878 0.6091 -0.1168 1
-0.0200 1.6982 0.8705 0.3709 32
-0.0200 1.1803 0.6048 -0.0695 1
-0.0200 1.7033 0.8724 0.4418 31
-0.0200 1.1944 0.6115 -0.0234 2
-0.0200 1.6785 0.8589 0.5052 31
-0.0200 1.1882 0.6059 0.0233 1
-0.0200 1.1852 0.6039 0.0697 1
-0.0200 1.1895 0.6058 0.1168 1
-0.0200 1.1500 0.5852 0.1584 1
-0.0200 1.1890 0.6048 -0.1638 1
-0.0200 1.2115 0.6159 0.2153 1
-0.0200 1.1882 0.6041 -0.1166 2
-0.0200 1.7047 0.8663 0.3717 32
-0.0200 1.1539 0.5862 -0.0678 3
-0.0200 1.7028 0.8646 0.4409 31
-0.0200 1.2215 0.6200 -0.0239 4
-0.0200 1.6815 0.8531 0.5052 33
-0.0200 1.2010 0.6072 0.0235 1
-0.0200 1.1587 0.5855 0.0680 1
-0.0200 1.2023 0.6071 0.1178 1
-0.0200 1.2052 0.6080 0.1657 1
-0.0200 1.1769 0.5935 -0.1618 1
-0.0200 1.2276 0.6190 0.2178 1
-0.0200 1.1938 0.6017 -0.1170 2
-0.0200 1.7042 0.8586 0.3709 34
-0.0200 1.1845 0.5965 -0.0695 3
-0.0200 1.6954 0.8534 0.4382 33
-0.0200 1.2110 0.6096 -0.0237 4
-0.0200 1.6808 0.8457 0.5042 34
-0.0200 1.1977 0.6005 0.0234 1
-0.0200 1.1357 0.5690 0.0666 1
-0.0200 1.2115 0.6064 0.1185 1
-0.0200 1.2107 0.6058 0.1662 1
-0.0200 1.1789 0.5896 -0.1618 1
-0.0200 1.1927 0.5962 0.2112 1
-0.0200 1.1906 0.5949 -0.1164 2
-0.0200 1.7141 0.8565 0.3725 32
-0.0200 1.1864 0.5926 -0.0695 4
-0.0200 1.6982 0.8478 0.4382 32
-0.0200 1.1952 0.5964 -0.0233 4
-0.0200 1.6838 0.8399 0.5042 32
-0.0200 1.2051 0.5990 0.0235 1
-0.0200 1.1627 0.5774 0.0680 1
-0.0200 1.2100 0.6006 0.1182 1
-0.0200 1.2022 0.5962 0.1648 1
-0.0200 1.1952 0.5925 -0.1638 1
-0.0200 1.2195 0.6043 0.2156 1
-0.0200 1.1676 0.5784 -0.1140 2
-0.0200 1.7102 0.8467 0.3709 33
-0.0200 1.1958 0.5918 -0.0699 4
-0.0200 1.7046 0.8436 0.4391 32
-0.0200 1.1919 0.5896 -0.0232 6
-0.0200 1.6798 0.8306 0.5021 32
-0.0200 1.1858 0.5840 0.0231 1
-0.0200 1.2078 0.5943 0.0705 1
-0.0200 1.2729 0.6261 0.1241 1
-0.0200 1.2329 0.6058 0.1687 1
-0.0200 1.2009 0.5899 -0.1643 2
-0.0200 1.2182 0.5981 0.2149 1
-0.0200 1.1751 0.5767 -0.1145 4
-0.0200 1.7027 0.8352 0.3686 34
-0.0200 1.1943 0.5856 -0.0697 6
-0.0200 1.7042 0.8356 0.4382 33
-0.0200 1.2067 0.5914 -0.0235 8
-0.0200 1.6828 0.8244 0.5021 31
-0.0200 1.1933 0.5823 0.0232 1
-0.0200 1.1705 0.5706 0.0682 1
-0.0200 1.2000 0.5848 0.1168 1
-0.0200 1.1458 0.5579 0.1565 1
-0.0200 1.1923 0.5803 -0.1628 2
-0.0200 1.2150 0.5910 0.2140 1
-0.0200 1.1915 0.5796 -0.1159 4
-0.0200 1.6985 0.8259 0.3671 34
-0.0200 1.1928 0.5797 -0.0695 9
-0.0200 1.7073 0.8294 0.4382 31
-0.0200 1.2160 0.5905 -0.0236 14
-0.0200 1.6823 0.8165 0.5011 32
-0.0200 1.2151 0.5877 0.0236 1
-0.0200 1.1761 0.5683 0.0685 1
-0.0200 1.1913 0.5754 0.1157 1
-0.0200 1.2050 0.5815 0.1643 1
-0.0200 1.1979 0.5778 -0.1633 2
-0.0200 1.2189 0.5877 0.2143 1
-0.0200 1.1971 0.5771 -0.1163 4
-0.0200 1.7120 0.8250 0.3694 33
-0.0200 1.1948 0.5755 -0.0695 12
-0.0200 1.6996 0.8183 0.4355 33
-0.0200 1.2109 0.5827 -0.0235 19
-0.0200 1.6852 0.8107 0.5011 33
-0.0200 1.2028 0.5765 0.0233 1
-0.0200 1.1870 0.5687 0.0690 5
-0.0200 1.1735 0.5617 0.1138 2
-0.0200 1.1640 0.5567 0.1584 1
-0.0200 1.2035 0.5753 -0.1638 2
-0.0200 1.1994 0.5734 0.2106 1
-0.0200 1.2063 0.5764 -0.1170 4
-0.0200 1.7149 0.8191 0.3694 32
-0.0200 1.2004 0.5731 -0.0697 12
-0.0200 1.6990 0.8107 0.4346 33
-0.0200 1.2056 0.5753 -0.0233 25
-0.0200 1.6879 0.8051 0.5011 32
-0.0200 1.2137 0.5768 0.0235 1
-0.0200 1.1980 0.5688 0.0695 6
-0.0200 1.2007 0.5696 0.1163 1
-0.0200 1.1838 0.5614 0.1609 1
-0.0200 1.2305 0.5833 -0.1672 1
-0.0200 1.2068 0.5717 0.2115 1
-0.0200 1.1993 0.5679 -0.1161 4
-0.0200 1.7105 0.8100 0.3679 34
-0.0200 1.1951 0.5657 -0.0693 10
-0.0200 1.7016 0.8051 0.4346 33
-0.0200 1.2040 0.5694 -0.0232 33
-0.0200 1.6732 0.7909 0.4959 33
-0.0200 1.1886 0.5598 0.0229 1
-0.0200 1.1710 0.5513 0.0678 1
-0.0200 1.2134 0.5707 0.1173 1
-0.0200 1.2181 0.5724 0.1653 1
-0.0200 1.2104 0.5686 0.2118 1
-0.0200 1.1813 0.5546 -0.1142 2
-0.0200 1.7026 0.7990 0.3656 34
-0.0200 1.1934 0.5598 -0.0691 7
-0.0200 1.7009 0.7975 0.4337 34
-0.0200 1.2113 0.5679 -0.0234 29
-0.0200 1.6741 0.7845 0.4954 30
-0.0200 1.2013 0.5609 0.0231 1
-0.0200 1.1729 0.5472 0.0678 1
-0.0200 1.2099 0.5639 0.1168 1
-0.0200 1.1768 0.5483 0.1594 1
-0.0200 1.2482 0.5810 0.2181 1
-0.0200 1.2266 0.5707 -0.1184 1
-0.0200 1.6982 0.7901 0.3641 34
-0.0200 1.1862 0.5516 -0.0686 4
-0.0200 1.7035 0.7918 0.4337 33
-0.0200 1.2169 0.5654 -0.0234 29
-0.0200 1.6838 0.7820 0.4975 32
-0.0200 1.2014 0.5559 0.0231 1
-0.0200 1.1730 0.5422 0.0677 2
-0.0200 1.1883 0.5491 0.1145 1
-0.0200 1.1805 0.5450 0.1596 2
-0.0200 1.2467 0.5750 0.2174 1
-0.0200 1.7045 0.7858 0.3648 32
-0.0200 1.2299 0.5667 -0.0710 1
-0.0200 1.6992 0.7826 0.4319 31
-0.0200 1.2316 0.5670 -0.0237 4
-0.0200 1.6865 0.7761 0.4975 34
-0.0200 1.2015 0.5509 0.0231 2
-0.0200 1.1785 0.5398 0.0679 2
-0.0200 1.2193 0.5580 0.1173 2
-0.0200 1.2131 0.5549 0.1638 2
-0.0200 1.2181 0.5567 0.2121 2
-0.0200 1.7109 0.7811 0.3656 33
-0.0200 1.2501 0.5705 -0.0720 1
-0.0200 1.7021 0.7764 0.4319 32
-0.0200 1.6804 0.7662 0.4949 31
-0.0200 1.2236 0.5556 0.0235 4
-0.0200 1.1985 0.5439 0.0690 5
-0.0200 1.2067 0.5471 0.1159 7
-0.0200 1.2187 0.5521 0.1643 8
-0.0200 1.2057 0.5459 0.2096 6
-0.0200 1.7100 0.7736 0.3648 32
-0.0200 1.1793 0.5332 -0.0678 1
-0.0200 1.7012 0.7688 0.4310 32
-0.0200 1.6796 0.7587 0.4938 31
-0.0200 1.2218 0.5499 0.0234 4
-0.0200 1.2150 0.5463 0.0698 10
-0.0200 1.2250 0.5503 0.1175 7
-0.0200 1.2151 0.5456 0.1635 6
-0.0200 1.2166 0.5457 0.2112 8
-0.0200 1.2417 0.5567 -0.1191 1
-0.0200 1.6983 0.7615 0.3618 32
-0.0200 1.0717 0.4803 -0.0615 1
-0.0200 1.7038 0.7632 0.4310 31
-0.0200 1.6752 0.7497 0.4918 29
-0.0200 1.2164 0.5423 0.0232 3
-0.0200 1.2096 0.5388 0.0694 5
-0.0200 1.2195 0.5430 0.1168 4
-0.0200 1.2098 0.5381 0.1626 4
-0.0200 1.2221 0.5431 0.2118 4
-0.0200 1.2909 0.5737 -0.1236 1
-0.0200 1.6973 0.7539 0.3610 34
-0.0200 1.7100 0.7588 0.4319 35
-0.0200 1.6848 0.7470 0.4938 31
-0.0200 1.2237 0.5405 0.0234 2
-0.0200 1.1932 0.5265 0.0684 2
-0.0200 1.2177 0.5371 0.1164 2
-0.0200 1.2044 0.5307 0.1616 2
-0.0200 1.2384 0.5452 0.2143 2
-0.0200 1.6928 0.7448 0.3595 34
-0.0200 1.6930 0.7442 0.4270 36
-0.0200 1.6821 0.7387 0.4923 31
-0.0200 1.3273 0.5788 0.2293 1
-0.0200 1.7044 0.7428 0.3614 37
-0.0200 1.6920 0.7368 0.4261 35
-0.0200 1.6847 0.7329 0.4923 31
-0.0200 1.7051 0.7361 0.3610 35
-0.0200 1.6964 0.7316 0.4265 33
-0.0200 1.6748 0.7216 0.4887 29
-0.0200 1.6933 0.7240 0.3580 35
-0.0200 1.7025 0.7272 0.4274 35
-0.0200 1.6772 0.7161 0.4887 31
-0.0200 1.6974 0.7191 0.3583 37
-0.0200 1.7067 0.7223 0.4279 35
-0.0200 1.6850 0.7125 0.4902 32
-0.0200 1.7018 0.7140 0.3587 35
-0.0200 1.6966 0.7111 0.4247 34
-0.0200 1.6874 0.7069 0.4902 33
-0.0200 1.6969 0.7053 0.3572 35
-0.0200 1.6918 0.7025 0.4229 34
-0.0200 1.6863 0.6995 0.4892 32
-0.0200 1.6994 0.6991 0.3572 35
-0.0200 1.6889 0.6941 0.4216 36
-0.0200 1.6781 0.6889 0.4861 32
-0.0200 1.6921 0.6895 0.2894 1
-0.0200 1.6873 0.6872 0.3541 36
-0.0200 1.7022 0.6926 0.4243 37
-0.0200 1.6733 0.6802 0.4840 31
-0.0200 1.6962 0.6846 0.2897 3
-0.0200 1.6952 0.6835 0.3553 37
-0.0200 1.6973 0.6837 0.4225 36
-0.0200 1.6792 0.6760 0.4850 31
-0.0200 1.6858 0.6736 0.2875 8
-0.0200 1.6956 0.6772 0.3549 35
-0.0200 1.6851 0.6723 0.4189 35
-0.0200 1.6851 0.6716 0.4861 32
-0.0200 1.6753 0.6626 0.2853 14
-0.0200 1.6943 0.6698 0.3541 34
-0.0200 1.6929 0.6686 0.4202 33
-0.0200 1.6910 0.6671 0.4871 33
-0.0200 1.6812 0.6582 0.2860 20
-0.0200 1.7040 0.6667 0.3557 34
-0.0200 1.6880 0.6598 0.4184 33
-0.0200 1.6772 0.6549 0.4824 31
-0.0200 1.6835 0.6523 0.2860 29
-0.0200 1.6916 0.6551 0.3526 34
-0.0200 1.6975 0.6567 0.4202 33
-0.0200 1.6848 0.6511 0.4840 14
-0.0200 1.7006 0.6521 0.2885 31
-0.0200 1.6866 0.6464 0.3511 34
-0.0200 1.6962 0.6494 0.4193 34
-0.0200 1.8748 0.7170 0.5378 16
-0.0200 1.7028 0.6462 0.2885 31
-0.0200 1.6925 0.6419 0.3519 33
-0.0200 1.6966 0.6428 0.4189 35
-0.0200 1.8520 0.7009 0.5306 19
-0.0200 1.6940 0.6360 0.2866 36
-0.0200 1.7021 0.6387 0.3534 35
-0.0200 1.6897 0.6334 0.4166 35
-0.0200 1.8526 0.6938 0.5301 21
-0.0200 1.6980 0.6308 0.2869 29
-0.0200 1.7024 0.6321 0.3530 31
-0.0200 1.7230 0.6391 0.4243 14
-0.0200 1.8043 0.6685 0.5156 31
-0.0200 1.7132 0.6297 0.2891 12
-0.0200 1.7489 0.6424 0.3622 11
-0.0200 1.8606 0.6827 0.4576 20
-0.0200 1.8447 0.6762 0.5264 35
-0.0200 1.9707 0.7161 0.4076 19
-0.0200 1.8666 0.6775 0.4585 26
-0.0200 1.9160 0.6947 0.5461 24
-0.0200 1.9639 0.7059 0.4057 19
-0.0200 1.8910 0.6789 0.4638 42
-0.0200 1.9312 0.6926 0.5497 6
-0.0200 1.8257 0.6497 0.3069 1
-0.0200 1.9645 0.6984 0.4053 33
-0.0200 1.9208 0.6824 0.4706 46
-0.0200 1.8479 0.6558 0.5254 1
-0.0200 1.7253 0.6076 0.2897 3
-0.0200 1.9891 0.6997 0.4099 26
-0.0200 1.9248 0.6767 0.4710 37
-0.0200 1.8191 0.6388 0.5166 2
-0.0200 1.7503 0.6092 0.3602 15
-0.0200 1.9106 0.6642 0.4670 32
-0.0200 1.7939 0.6230 0.5088 10
-0.0200 1.7202 0.5923 0.2882 36
-0.0200 1.7451 0.6002 0.3587 18
-0.0200 1.9020 0.6534 0.4643 33
-0.0200 1.7961 0.6167 0.5088 20
-0.0200 1.7428 0.5933 0.2916 27
-0.0200 1.9006 0.6455 0.4634 33
-0.0200 1.7927 0.6086 0.5073 21
-0.0200 2.3778 0.8011 0.3081 1
-0.0200 1.7861 0.6011 0.2985 25
-0.0200 1.9055 0.6409 0.3908 15
-0.0200 1.9119 0.6423 0.4656 37
-0.0200 1.8095 0.6072 0.5114 11
-0.0200 2.4333 0.8104 0.3149 8
-0.0200 1.9906 0.6622 0.3323 33
-0.0200 1.9133 0.6361 0.3919 32
-0.0200 1.9142 0.6356 0.4656 44
-0.0200 1.8079 0.5997 0.5104 2
-0.0200 2.0079 0.6602 0.3348 33
-0.0200 1.8745 0.6159 0.3835 38
-0.0200 1.9238 0.6314 0.4674 28
-0.0200 2.3276 0.7572 0.3005 12
-0.0200 2.0252 0.6580 0.3373 33
-0.0200 1.8561 0.6027 0.3793 35
-0.0200 1.7962 0.5826 0.4360 17
-0.0200 3.0398 0.9847 0.8562 18
-0.0200 2.2451 0.7217 0.2896 15
-0.0200 2.1517 0.6908 0.3579 14
-0.0200 1.8619 0.5974 0.3801 34
-0.0200 1.7815 0.5710 0.4319 22
-0.0200 2.5004 0.8004 0.7035 3
-0.0200 2.0886 0.6637 0.2691 5
-0.0200 2.0240 0.6424 0.3363 14
-0.0200 1.7815 0.5651 0.3633 28
-0.0200 1.8317 0.5804 0.4436 20
-0.0200 2.0351 0.6409 0.0372 1
-0.0200 2.1072 0.6628 0.1158 1
-0.0200 2.0415 0.6413 0.1872 1
-0.0200 2.0376 0.6389 0.3382 36
-0.0200 1.7761 0.5563 0.3618 32
-0.0200 1.9696 0.6161 0.4764 26
-0.0200 2.4855 0.7770 0.6978 23
-0.0200 2.0337 0.6322 0.0372 1
-0.0200 2.0142 0.6254 0.1105 1
-0.0200 2.0132 0.6247 0.1844 8
-0.0200 2.3343 0.7226 0.3870 37
-0.0200 1.7949 0.5553 0.3652 29
-0.0200 2.8641 0.8855 -0.1571 2
-0.0200 1.9997 0.6179 0.4832 30
-0.0200 2.9004 0.8956 -0.0530 1
-0.0200 1.9881 0.6105 0.0363 20
-0.0200 2.0069 0.6155 0.1100 7
-0.0200 2.0059 0.6148 0.1836 18
-0.0200 2.0234 0.6194 0.2598 40
-0.0200 2.4482 0.7485 0.4055 31
-0.0200 1.8738 0.5725 0.3809 33
-0.0200 2.8596 0.8732 -0.1567 18
-0.0200 2.0000 0.6103 0.4827 28
-0.0200 2.0294 0.6189 -0.0370 1
-0.0200 2.0808 0.6342 0.5829 3
-0.0200 1.9998 0.6064 0.0365 39
-0.0200 2.8337 0.8577 0.2590 3
-0.0200 2.0503 0.6198 0.2630 21
-0.0200 2.4488 0.7398 0.4052 17
-0.0200 1.8852 0.5688 0.3828 20
-0.0200 2.8435 0.8574 -0.1556 15
-0.0200 1.9833 0.5980 0.4782 30
-0.0200 2.0353 0.6133 -0.0371 8
-0.0200 2.1125 0.6362 0.5911 3
-0.0200 2.0132 0.6032 0.0367 39
-0.0200 2.8566 0.8554 0.1563 27
-0.0200 2.8003 0.8375 0.2557 2
-0.0200 2.0314 0.6067 0.2603 22
-0.0200 1.8720 0.5588 0.3094 6
-0.0200 2.5136 0.7493 0.5098 14
-0.0200 2.8635 0.8531 -0.1566 16
-0.0200 1.9815 0.5903 0.4773 25
-0.0200 2.0296 0.6043 -0.0370 25
-0.0200 2.1109 0.6281 0.5901 3
-0.0200 2.8423 0.8403 0.1553 14
-0.0200 0.7070 0.2089 0.0645 3
-0.0200 2.0239 0.5972 0.2591 17
-0.0200 2.0490 0.6034 0.4152 10
-0.0200 1.9836 0.5834 0.4773 13
-0.0200 2.0356 0.5983 -0.0370 35
-0.0200 2.1649 0.6359 0.6046 2
-0.0200 2.8235 0.8251 0.0513 1
-0.0200 0.7268 0.2120 0.0662 3
-0.0200 2.0260 0.5901 0.2591 8
-0.0200 0.7265 0.2113 0.1198 4
-0.0200 2.0341 0.5914 0.4118 4
-0.0200 1.9706 0.5722 0.4737 4
-0.0200 2.0357 0.5907 -0.0370 23
-0.0200 2.2729 0.6590 0.6341 1
-0.0200 0.8319 0.2400 0.0151 3
-0.0200 0.7485 0.2156 0.0408 3
-0.0200 0.7352 0.2117 0.0669 3
-0.0200 0.7386 0.2121 0.1217 4
-0.0200 0.7813 0.2242 0.1580 3
-0.0200 0.7737 0.2217 0.1858 2
-0.0200 0.7076 0.2025 0.1972 2
-0.0200 0.8328 0.2371 0.0151 3
-0.0200 0.7066 0.2010 -0.1696 8
-0.0200 0.7147 0.2032 0.0389 3
-0.0200 0.7475 0.2124 0.0680 3
-0.0200 0.7295 0.2070 0.0931 5
-0.0200 0.7355 0.2084 0.1211 4
-0.0200 0.7858 0.2225 0.1588 3
-0.0200 0.7632 0.2158 0.1831 2
-0.0200 0.7362 0.2079 0.2050 2
-0.0200 0.8336 0.2342 0.0151 3
-0.0200 0.7500 0.2104 0.0408 3
-0.0200 0.7213 0.2022 0.0655 3
-0.0200 0.7685 0.2151 0.0980 10
-0.0200 0.7248 0.2026 0.1192 4
-0.0200 0.7847 0.2192 0.1584 6
-0.0200 0.7752 0.2163 0.1858 5
-0.0200 0.7444 0.2074 0.2071 6
-0.0200 0.8344 0.2312 0.0151 3
-0.0200 0.7430 0.2056 0.0404 3
-0.0200 0.7739 0.2139 0.0702 6
-0.0200 0.8036 0.2220 0.1024 13
-0.0200 0.7579 0.2090 0.1245 12
-0.0200 0.7874 0.2169 0.1588 9
-0.0200 0.7471 0.2057 -0.0406 5
-0.0200 0.7910 0.2176 0.1894 21
-0.0200 0.7321 0.2012 0.2034 19
-0.0200 0.7697 0.2103 0.0139 4
-0.0200 0.7803 0.2130 0.0424 12
-0.0200 0.7727 0.2107 0.0701 18
-0.0200 0.7757 0.2112 0.0987 40
-0.0200 0.7643 0.2080 0.1255 27
-0.0200 0.7711 0.2095 0.1553 31
-0.0200 0.7479 0.2030 -0.0406 5
-0.0200 0.7805 0.2118 0.1867 52
-0.0200 0.7309 0.1982 0.2029 45
-0.0200 0.7511 0.2025 0.0136 8
-0.0200 0.7094 0.1911 -0.1696 8
-0.0200 0.7811 0.2103 0.0424 34
-0.0200 0.7715 0.2075 0.0699 48
-0.0200 0.7688 0.2066 0.0977 46
-0.0200 0.7746 0.2078 0.1270 37
-0.0200 0.7547 0.2024 0.1519 52
-0.0200 0.7948 0.2130 -0.0431 4
-0.0200 0.7680 0.2056 0.1836 51
-0.0200 0.7279 0.1946 0.2019 42
-0.0200 0.7653 0.2035 0.0138 12
-0.0200 0.7100 0.1887 -0.1696 8
-0.0200 0.7586 0.2014 0.0411 43
-0.0200 0.7665 0.2034 0.0694 45
-0.0200 0.7676 0.2034 0.0975 52
-0.0200 0.7696 0.2036 0.1261 34
-0.0200 0.6741 0.1784 -0.0610 6
-0.0200 0.7649 0.2022 0.1538 61
-0.0200 0.7570 0.2000 -0.0410 5
-0.0200 0.7574 0.2000 0.1809 57
-0.0200 0.7212 0.1903 -0.0130 5
-0.0200 0.7509 0.1980 0.2081 48
-0.0200 0.7641 0.2003 0.0138 12
-0.0200 0.7484 0.1961 -0.1786 7
-0.0200 0.7690 0.2013 0.0417 48
-0.0200 0.7369 0.1929 -0.1481 8
-0.0200 0.7691 0.2012 0.0696 48
-0.0200 0.8122 0.2123 -0.1330 3
-0.0200 0.7740 0.2022 0.0982 56
-0.0200 0.8105 0.2116 -0.1029 4
-0.0200 0.7703 0.2009 0.1261 42
-0.0200 0.7442 0.1941 -0.0673 5
-0.0200 0.7751 0.2020 0.1557 59
-0.0200 0.7460 0.1943 -0.0404 5
-0.0200 0.7638 0.1988 0.1822 60
-0.0200 0.7606 0.1978 -0.0137 5
-0.0200 0.7479 0.1944 0.2071 53
-0.0200 0.7686 0.1986 0.0139 16
-0.0200 0.7378 0.1905 -0.1759 7
-0.0200 0.7639 0.1973 0.0413 40
-0.0200 0.7756 0.2002 -0.1557 7
-0.0200 0.7524 0.1940 0.0680 54
-0.0200 0.8130 0.2095 -0.1330 3
-0.0200 0.7786 0.2005 0.0987 55
-0.0200 0.7421 0.1909 -0.0941 5
-0.0200 0.7748 0.1994 0.1267 46
-0.0200 0.7140 0.1836 -0.0645 6
-0.0200 0.7720 0.1984 0.1549 59
-0.0200 0.7699 0.1977 -0.0417 5
-0.0200 0.7683 0.1971 0.1831 57
-0.0200 0.7709 0.1978 -0.0139 5
-0.0200 0.7392 0.1895 0.2045 61
-0.0200 0.7635 0.1946 0.0138 16
-0.0200 0.7573 0.1929 -0.1804 7
-0.0200 0.7742 0.1971 0.0419 48
-0.0200 0.7896 0.2008 -0.1584 7
-0.0200 0.7550 0.1919 0.0682 57
-0.0200 0.8060 0.2049 -0.1317 6
-0.0200 0.7792 0.1979 0.0987 55
-0.0200 0.7850 0.1992 -0.0994 4
-0.0200 0.7678 0.1947 0.1255 50
-0.0200 0.7455 0.1889 -0.0673 5
-0.0200 0.7574 0.1919 0.1519 63
-0.0200 0.7996 0.2025 -0.0432 9
-0.0200 0.7651 0.1936 0.1822 60
-0.0200 0.7755 0.1961 -0.0140 10
-0.0200 0.7398 0.1869 0.2045 63
-0.0200 0.8075 0.2030 -0.2231 5
-0.0200 0.7855 0.1973 0.0141 22
-0.0200 0.7674 0.1926 -0.1827 14
-0.0200 0.7691 0.1929 0.0416 39
-0.0200 0.7903 0.1982 -0.1584 14
-0.0200 0.7711 0.1933 0.0696 58
-0.0200 0.8048 0.2016 -0.1314 6
-0.0200 0.7703 0.1928 0.0975 63
-0.0200 0.7549 0.1888 -0.0955 9
-0.0200 0.7762 0.1940 0.1267 46
-0.0200 0.7751 0.1937 -0.0699 10
-0.0200 0.7638 0.1907 0.1530 58
-0.0200 0.7868 0.1963 -0.0425 10
-0.0200 0.7696 0.1919 0.1831 63
-0.0200 0.7820 0.1948 -0.0141 14
-0.0200 0.7536 0.1876 0.2081 68
-0.0200 0.8082 0.2002 -0.2231 5
-0.0200 0.7900 0.1955 0.0142 33
-0.0200 0.7699 0.1904 -0.1831 21
-0.0200 0.7620 0.1883 0.0411 47
-0.0200 0.7910 0.1954 -0.1584 14
-0.0200 0.7776 0.1920 0.0701 46
-0.0200 0.8017 0.1978 -0.1308 13
-0.0200 0.7710 0.1901 0.0975 57
-0.0200 0.7652 0.1885 -0.0968 13
-0.0200 0.7845 0.1931 0.1280 45
-0.0200 0.7739 0.1905 -0.0697 10
-0.0200 0.7721 0.1899 0.1546 58
-0.0200 0.7991 0.1964 -0.0431 19
-0.0200 0.7551 0.1855 0.1795 66
-0.0200 0.7865 0.1930 -0.0141 24
-0.0200 0.7543 0.1850 0.2081 68
-0.0200 0.8089 0.1973 -0.2231 5
-0.0200 0.7732 0.1885 0.0139 40
-0.0200 0.7649 0.1863 -0.1818 28
-0.0200 0.7471 0.1820 0.0403 38
-0.0200 0.7897 0.1922 -0.1580 21
-0.0200 0.7724 0.1879 0.0696 48
-0.0200 0.8177 0.1987 -0.1333 21
-0.0200 0.7735 0.1879 0.0977 56
-0.0200 0.7697 0.1869 -0.0973 18
-0.0200 0.7698 0.1868 0.1255 46
-0.0200 0.7764 0.1883 -0.0699 20
-0.0200 0.7728 0.1872 0.1546 61
-0.0200 0.8017 0.1941 -0.0432 23
-0.0200 0.7576 0.1834 0.1800 60
-0.0200 0.7716 0.1867 -0.0139 30
-0.0200 0.7549 0.1825 0.2081 72
-0.0200 0.7494 0.1802 -0.2065 6
-0.0200 0.7875 0.1892 0.0141 41
-0.0200 0.7712 0.1852 -0.1831 42
-0.0200 0.7671 0.1842 0.0413 47
-0.0200 0.7961 0.1910 -0.1591 42
-0.0200 0.7634 0.1830 0.0687 50
-0.0200 0.8126 0.1946 -0.1323 39
-0.0200 0.7819 0.1871 0.0987 50
-0.0200 0.7896 0.1890 -0.0997 35
-0.0200 0.7666 0.1833 0.1248 48
-0.0200 0.7713 0.1843 -0.0694 25
-0.0200 0.7753 0.1851 0.1549 63
-0.0200 0.7907 0.1887 -0.0426 40
-0.0200 0.7601 0.1814 0.1804 63
-0.0200 0.7781 0.1855 -0.0140 40
-0.0200 0.7367 0.1755 0.2029 78
-0.0200 0.7500 0.1777 -0.2065 6
-0.0200 0.7706 0.1824 0.0138 48
-0.0200 0.7718 0.1826 -0.1831 49
-0.0200 0.7619 0.1802 0.0410 43
-0.0200 0.7986 0.1888 -0.1595 49
-0.0200 0.7659 0.1809 0.0689 45
-0.0200 0.7902 0.1865 -0.1286 59
-0.0200 0.7806 0.1841 0.0985 51
-0.0200 0.7883 0.1859 -0.0994 48
-0.0200 0.7787 0.1835 0.1267 42
-0.0200 0.7835 0.1845 -0.0704 39
-0.0200 0.7663 0.1803 0.1530 65
-0.0200 0.7913 0.1860 -0.0426 40
-0.0200 0.7702 0.1811 0.1827 66
-0.0200 0.7904 0.1857 -0.0142 43
-0.0200 0.7448 0.1748 0.2050 72
-0.0200 0.7732 0.1805 -0.2127 6
-0.0200 0.7653 0.1785 0.0137 53
-0.0200 0.7610 0.1774 -0.1804 50
-0.0200 0.7722 0.1800 0.0416 45
-0.0200 0.7916 0.1844 -0.1580 50
-0.0200 0.7665 0.1784 0.0689 42
-0.0200 0.7850 0.1825 -0.1277 61
-0.0200 0.7773 0.1806 0.0980 51
-0.0200 0.7850 0.1824 -0.0990 52
-0.0200 0.7870 0.1827 0.1280 41
-0.0200 0.7841 0.1819 -0.0704 39
-0.0200 0.7727 0.1791 0.1542 65
-0.0200 0.7802 0.1807 -0.0420 41
-0.0200 0.7613 0.1763 0.1804 72
-0.0200 0.7949 0.1839 -0.0142 47
-0.0200 0.7453 0.1724 0.2050 72
-0.0200 1.2018 0.6697 0.0240 1
-0.0200 1.2552 0.6986 0.1257 1
-0.0200 1.2144 0.6754 0.1706 1
-0.0200 1.1659 0.6482 -0.1638 1
-0.0200 1.2277 0.6822 0.2224 1
-0.0200 1.1947 0.6639 -0.1196 1
-0.0200 1.6991 0.9438 0.3778 24
-0.0200 1.2328 0.6845 -0.0739 1
-0.0200 1.7022 0.9447 0.4495 25
-0.0200 1.2101 0.6713 -0.0242 2
-0.0200 1.6844 0.9341 0.5161 24
-0.0200 1.1884 0.6568 0.0237 1
-0.0200 1.2378 0.6836 0.0741 1
-0.0200 1.2681 0.7000 0.1267 1
-0.0200 1.2167 0.6711 0.1706 1
-0.0200 1.1682 0.6441 -0.1638 1
-0.0200 1.2577 0.6932 0.2275 1
-0.0200 1.1848 0.6530 -0.1184 2
-0.0200 1.6972 0.9350 0.3767 30
-0.0200 1.1949 0.6580 -0.0715 3
-0.0200 1.7038 0.9378 0.4490 30
-0.0200 1.2264 0.6748 -0.0244 4
-0.0200 1.6826 0.9254 0.5145 30
-0.0200 1.1924 0.6536 0.0237 1
-0.0200 1.2181 0.6669 0.1215 1
-0.0200 1.2818 0.7012 0.1794 1
-0.0200 1.1704 0.6400 -0.1638 1
-0.0200 1.2185 0.6660 0.2199 1
-0.0200 1.1941 0.6527 -0.1191 8
-0.0200 1.7039 0.9309 0.3774 29
-0.0200 1.1902 0.6500 -0.0711 12
-0.0200 1.6951 0.9253 0.4459 30
-0.0200 1.1954 0.6523 -0.0238 12
-0.0200 1.6977 0.9260 0.5182 32
-0.0200 1.1859 0.6447 0.0236 1
-0.0200 1.2426 0.6749 0.0741 1
-0.0200 1.2082 0.6560 0.1203 1
-0.0200 1.2668 0.6872 0.1770 1
-0.0200 1.2174 0.6599 0.2193 1
-0.0200 1.1999 0.6504 -0.1194 17
-0.0200 1.7037 0.9231 0.3767 29
-0.0200 1.1890 0.6439 -0.0709 16
-0.0200 1.6983 0.9194 0.4459 28
-0.0200 1.1924 0.6453 -0.0237 4
-0.0200 1.6924 0.9155 0.5156 29
-0.0200 1.1952 0.6443 0.0237 1
-0.0200 1.1964 0.6442 0.1189 1
-0.0200 1.2587 0.6772 0.1755 1
-0.0200 1.1993 0.6450 -0.1672 1
-0.0200 1.2144 0.6530 0.2184 1
-0.0200 1.1898 0.6396 -0.1182 20
-0.0200 1.7104 0.9190 0.3774 29
-0.0200 1.1982 0.6436 -0.0713 21
-0.0200 1.7032 0.9144 0.4463 30
-0.0200 1.2051 0.6470 -0.0239 2
-0.0200 1.6903 0.9071 0.5140 31
-0.0200 1.1920 0.6375 0.0236 1
-0.0200 1.2057 0.6438 0.1196 1
-0.0200 1.2259 0.6543 0.1706 1
-0.0200 1.1524 0.6148 -0.1604 1
-0.0200 1.2463 0.6646 0.2237 2
-0.0200 1.1903 0.6345 -0.1180 23
-0.0200 1.7030 0.9078 0.3751 29
-0.0200 1.2021 0.6405 -0.0714 30
-0.0200 1.7028 0.9069 0.4454 31
-0.0200 1.2162 0.6475 -0.0240 6
-0.0200 1.6866 0.8976 0.5119 34
-0.0200 1.1819 0.6268 0.0234 1
-0.0200 1.2495 0.6621 0.0741 1
-0.0200 1.1832 0.6267 0.1171 1
-0.0200 1.2282 0.6500 0.1706 1
-0.0200 1.2037 0.6368 -0.1672 1
-0.0200 1.2486 0.6602 0.2237 2
-0.0200 1.1924 0.6305 -0.1180 45
-0.0200 1.7045 0.9009 0.3747 31
-0.0200 1.1938 0.6307 -0.0708 54
-0.0200 1.7060 0.9010 0.4454 31
-0.0200 1.2184 0.6432 -0.0240 25
-0.0200 1.6915 0.8926 0.5125 31
-0.0200 1.1858 0.6236 0.0234 1
-0.0200 1.2518 0.6578 0.0741 1
-0.0200 1.2083 0.6346 0.1194 1
-0.0200 1.1425 0.5996 0.1584 1
-0.0200 1.1813 0.6197 -0.1638 1
-0.0200 1.2106 0.6348 0.2165 1
-0.0200 1.1928 0.6255 -0.1178 41
-0.0200 1.7024 0.8923 0.3736 31
-0.0200 1.1836 0.6201 -0.0700 58
-0.0200 1.6987 0.8896 0.4427 30
-0.0200 1.2012 0.6288 -0.0237 82
-0.0200 1.6860 0.8822 0.5099 32
-0.0200 1.1986 0.6250 0.0236 1
-0.0200 1.1655 0.6072 0.0689 1
-0.0200 1.2052 0.6276 0.1189 2
-0.0200 1.2080 0.6286 0.1672 1
-0.0200 1.2222 0.6357 -0.1692 1
-0.0200 1.1883 0.6178 0.2121 1
-0.0200 1.7107 0.8890 0.3747 32
-0.0200 1.6949 0.8801 0.4409 32
-0.0200 1.6891 0.8763 0.5099 33
-0.0200 1.1972 0.6190 0.0235 1
-0.0200 1.1499 0.5940 0.0678 1
-0.0200 1.1915 0.6150 0.1173 2
-0.0200 1.2137 0.6262 0.1677 1
-0.0200 1.1680 0.6023 -0.1614 1
-0.0200 1.2027 0.6200 0.2143 1
-0.0200 1.2114 0.6242 -0.1192 1
-0.0200 1.7070 0.8791 0.3732 32
-0.0200 1.1756 0.6052 -0.0693 1
-0.0200 1.7085 0.8792 0.4436 31
-0.0200 1.2038 0.6194 -0.0236 2
-0.0200 1.6750 0.8616 0.5047 32
-0.0200 1.1977 0.6137 0.0235 1
-0.0200 1.1697 0.5991 0.0689 1
-0.0200 1.2096 0.6190 0.1189 1
-0.0200 1.1807 0.6037 0.1628 1
-0.0200 1.1878 0.6071 -0.1638 1
-0.0200 1.2084 0.6176 0.2149 1
-0.0200 1.1888 0.6073 -0.1168 1
-0.0200 1.6960 0.8660 0.3702 32
-0.0200 1.1794 0.6020 -0.0694 3
-0.0200 1.7046 0.8697 0.4418 31
-0.0200 1.2184 0.6216 -0.0239 2
-0.0200 1.6745 0.8539 0.5037 32
-0.0200 1.1962 0.6079 0.0234 1
-0.0200 1.1932 0.6058 0.0701 1
-0.0200 1.2171 0.6175 0.1194 1
-0.0200 1.2145 0.6159 0.1672 1
-0.0200 1.1863 0.6013 -0.1633 1
-0.0200 1.2264 0.6214 0.2178 1
-0.0200 1.1962 0.6058 -0.1173 2
-0.0200 1.7024 0.8622 0.3709 33
-0.0200 1.1761 0.5954 -0.0691 3
-0.0200 1.7006 0.8605 0.4400 31
-0.0200 1.2241 0.6192 -0.0239 4
-0.0200 1.6878 0.8533 0.5068 32
-0.0200 1.1840 0.5965 0.0231 1
-0.0200 1.1631 0.5857 0.0682 1
-0.0200 1.2049 0.6063 0.1180 1
-0.0200 1.2060 0.6063 0.1657 1
-0.0200 1.1636 0.5847 -0.1599 1
-0.0200 1.2302 0.6182 0.2181 1
-0.0200 1.1858 0.5956 -0.1161 2
-0.0200 1.7019 0.8545 0.3702 33
-0.0200 1.1799 0.5922 -0.0692 3
-0.0200 1.6966 0.8511 0.4382 33
-0.0200 1.2065 0.6052 -0.0236 4
-0.0200 1.6907 0.8477 0.5068 32
-0.0200 1.2003 0.5998 0.0234 1
-0.0200 1.1436 0.5709 0.0670 1
-0.0200 1.2070 0.6021 0.1180 1
-0.0200 1.2223 0.6094 0.1677 1
-0.0200 1.1619 0.5791 -0.1594 1
-0.0200 1.2147 0.6051 0.2149 1
-0.0200 1.2074 0.6012 -0.1180 2
-0.0200 1.7082 0.8506 0.3709 33
-0.0200 1.1890 0.5918 -0.0696 4
-0.0200 1.6994 0.8454 0.4382 32
-0.0200 1.2050 0.5992 -0.0235 4
-0.0200 1.6936 0.8418 0.5068 32
-0.0200 1.2006 0.5947 0.0234 1
-0.0200 1.1635 0.5758 0.0680 1
-0.0200 1.2376 0.6122 0.1208 1
-0.0200 1.2244 0.6051 0.1677 1
-0.0200 1.1960 0.5908 -0.1638 1
-0.0200 1.1885 0.5869 0.2099 1
-0.0200 1.1720 0.5785 -0.1143 4
-0.0200 1.7042 0.8411 0.3694 34
-0.0200 1.1875 0.5859 -0.0694 4
-0.0200 1.7058 0.8412 0.4391 31
-0.0200 1.1999 0.5915 -0.0234 8
-0.0200 1.6757 0.8257 0.5006 32
-0.0200 1.1775 0.5781 0.0229 1
-0.0200 1.1548 0.5665 0.0674 1
-0.0200 1.2255 0.6006 0.1194 1
-0.0200 1.2479 0.6113 0.1706 1
-0.0200 1.1838 0.5797 -0.1618 3
-0.0200 1.2118 0.5931 0.2137 1
-0.0200 1.1866 0.5805 -0.1156 4
-0.0200 1.7037 0.8332 0.3686 34
-0.0200 1.1861 0.5798 -0.0692 6
-0.0200 1.7054 0.8333 0.4382 32
-0.0200 1.2164 0.5943 -0.0236 8
-0.0200 1.6717 0.8164 0.4985 32
-0.0200 1.2066 0.5869 0.0234 1
-0.0200 1.1567 0.5624 0.0674 1
-0.0200 1.2240 0.5946 0.1191 1
-0.0200 1.1894 0.5773 0.1623 1
-0.0200 1.1859 0.5753 -0.1618 3
-0.0200 1.2139 0.5889 0.2137 1
-0.0200 1.1778 0.5712 -0.1145 4
-0.0200 1.7031 0.8255 0.3679 34
-0.0200 1.1953 0.5791 -0.0696 10
-0.0200 1.7083 0.8273 0.4382 33
-0.0200 1.2112 0.5866 -0.0235 19
-0.0200 1.6849 0.8156 0.5016 31
-0.0200 1.1779 0.5682 0.0228 1
-0.0200 1.1857 0.5714 0.0690 2
-0.0200 1.2153 0.5852 0.1180 2
-0.0200 1.2199 0.5871 0.1662 1
-0.0200 1.1807 0.5680 -0.1609 3
-0.0200 1.2213 0.5872 0.2146 1
-0.0200 1.2085 0.5809 -0.1173 4
-0.0200 1.7022 0.8181 0.3671 32
-0.0200 1.1972 0.5751 -0.0696 12
-0.0200 1.6970 0.8149 0.4346 33
-0.0200 1.2115 0.5815 -0.0235 21
-0.0200 1.6878 0.8097 0.5016 34
-0.0200 1.2070 0.5770 0.0234 1
-0.0200 1.1949 0.5707 0.0694 10
-0.0200 1.1759 0.5614 0.1140 2
-0.0200 1.2112 0.5777 0.1648 1
-0.0200 1.1970 0.5707 -0.1628 1
-0.0200 1.2019 0.5728 0.2109 1
-0.0200 1.2051 0.5743 -0.1168 4
-0.0200 1.7086 0.8139 0.3679 34
-0.0200 1.1884 0.5658 -0.0690 10
-0.0200 1.6998 0.8089 0.4346 33
-0.0200 1.2027 0.5721 -0.0232 31
-0.0200 1.6871 0.8022 0.5006 31
-0.0200 1.2162 0.5762 0.0235 1
-0.0200 1.1788 0.5580 0.0684 3
-0.0200 1.1796 0.5581 0.1142 1
-0.0200 1.2096 0.5718 0.1643 1
-0.0200 1.1631 0.5495 -0.1579 1
-0.0200 1.1914 0.5627 0.2087 1
-0.0200 1.1981 0.5658 -0.1159 4
-0.0200 1.7115 0.8079 0.3679 33
-0.0200 1.2048 0.5685 -0.0698 12
-0.0200 1.7026 0.8030 0.4346 34
-0.0200 1.2101 0.5705 -0.0234 34
-0.0200 1.6759 0.7897 0.4964 32
-0.0200 1.2001 0.5635 0.0231 1
-0.0200 1.1573 0.5428 0.0670 1
-0.0200 1.1888 0.5574 0.1149 1
-0.0200 1.1793 0.5524 0.1599 1
-0.0200 1.2005 0.5618 0.2099 1
-0.0200 1.1946 0.5591 -0.1154 1
-0.0200 1.7001 0.7953 0.3648 32
-0.0200 1.2013 0.5617 -0.0695 6
-0.0200 1.7054 0.7971 0.4346 33
-0.0200 1.2102 0.5654 -0.0233 29
-0.0200 1.6822 0.7855 0.4975 32
-0.0200 1.1858 0.5517 0.0228 1
-0.0200 1.1845 0.5506 0.0685 1
-0.0200 1.2124 0.5633 0.1170 1
-0.0200 1.1758 0.5458 0.1592 1
-0.0200 1.2419 0.5759 0.2168 1
-0.0200 1.2327 0.5717 -0.1189 1
-0.0200 1.7064 0.7910 0.3656 32
-0.0200 1.1924 0.5525 -0.0689 3
-0.0200 1.7082 0.7911 0.4346 33
-0.0200 1.2213 0.5653 -0.0235 21
-0.0200 1.6779 0.7764 0.4954 32
-0.0200 1.1968 0.5517 0.0230 2
-0.0200 1.1683 0.5381 0.0674 2
-0.0200 1.2126 0.5582 0.1168 2
-0.0200 1.1903 0.5475 0.1609 2
-0.0200 1.2080 0.5551 0.2106 1
-0.0200 1.7091 0.7850 0.3656 33
-0.0200 1.6968 0.7786 0.4310 33
-0.0200 1.6894 0.7745 0.4980 30
-0.0200 1.2132 0.5542 0.0233 1
-0.0200 1.1774 0.5373 0.0678 2
-0.0200 1.2272 0.5598 0.1180 3
-0.0200 1.2066 0.5499 0.1628 4
-0.0200 1.2297 0.5599 0.2140 4
-0.0200 1.7083 0.7774 0.3648 32
-0.0200 1.2072 0.5491 -0.0695 1
-0.0200 1.6959 0.7711 0.4301 32
-0.0200 1.6885 0.7670 0.4969 29
-0.0200 1.2204 0.5528 0.0234 4
-0.0200 1.2082 0.5468 0.0695 11
-0.0200 1.2144 0.5494 0.1166 9
-0.0200 1.2319 0.5567 0.1660 9
-0.0200 1.2116 0.5471 0.2106 9
-0.0200 1.2494 0.5639 -0.1199 1
-0.0200 1.7089 0.7713 0.3644 31
-0.0200 1.2526 0.5650 -0.0720 1
-0.0200 1.7019 0.7674 0.4310 31
-0.0200 1.6804 0.7569 0.4938 28
-0.0200 1.2150 0.5453 0.0232 5
-0.0200 1.2138 0.5442 0.0697 7
-0.0200 1.2055 0.5400 0.1156 6
-0.0200 1.2121 0.5427 0.1631 5
-0.0200 1.2226 0.5469 0.2121 5
-0.0200 1.2332 0.5514 -0.1182 1
-0.0200 1.7028 0.7610 0.3625 34
-0.0200 1.7047 0.7611 0.4310 33
-0.0200 1.6812 0.7503 0.4933 32
-0.0200 1.2298 0.5465 0.0235 2
-0.0200 1.2047 0.5351 0.0691 3
-0.0200 1.2202 0.5415 0.1168 3
-0.0200 1.2068 0.5350 0.1621 4
-0.0200 1.2209 0.5410 0.2115 4
-0.0200 1.2752 0.5648 -0.1220 1
-0.0200 1.7018 0.7534 0.3618 34
-0.0200 1.7002 0.7520 0.4292 33
-0.0200 1.6803 0.7429 0.4923 31
-0.0200 1.2335 0.5433 0.0235 1
-0.0200 1.1700 0.5148 0.0670 1
-0.0200 1.2549 0.5516 0.1199 1
-0.0200 1.2213 0.5366 0.1638 1
-0.0200 1.2426 0.5455 0.2149 1
-0.0200 1.7043 0.7478 0.3618 35
-0.0200 1.6902 0.7409 0.4261 37
-0.0200 1.6829 0.7370 0.4923 31
-0.0200 1.7033 0.7403 0.3610 35
-0.0200 1.6964 0.7365 0.4270 36
-0.0200 1.6855 0.7311 0.4923 31
-0.0200 1.7059 0.7343 0.3610 35
-0.0200 1.7007 0.7314 0.4274 35
-0.0200 1.6756 0.7199 0.4887 30
-0.0200 1.6976 0.7237 0.3587 34
-0.0200 1.7015 0.7247 0.4270 35
-0.0200 1.6763 0.7133 0.4881 34
-0.0200 1.6893 0.7132 0.3564 36
-0.0200 1.6986 0.7165 0.4256 34
-0.0200 1.6806 0.7082 0.4887 31
-0.0200 1.6954 0.7088 0.3572 34
-0.0200 1.6903 0.7060 0.4229 34
-0.0200 1.6901 0.7053 0.4907 31
-0.0200 1.6978 0.7029 0.3572 36
-0.0200 1.6909 0.6994 0.4225 36
-0.0200 1.6872 0.6972 0.4892 32
-0.0200 1.7271 0.7083 0.2957 1
-0.0200 1.7094 0.7007 0.3591 37
-0.0200 1.6898 0.6920 0.4216 36
-0.0200 1.6736 0.6847 0.4845 31
-0.0200 1.6966 0.6889 0.2900 1
-0.0200 1.6992 0.6893 0.3564 36
-0.0200 1.7031 0.6902 0.4243 35
-0.0200 1.6849 0.6825 0.4871 31
-0.0200 1.6917 0.6801 0.2888 4
-0.0200 1.6925 0.6797 0.3545 38
-0.0200 1.7018 0.6831 0.4234 36
-0.0200 1.6837 0.6751 0.4861 32
-0.0200 1.6921 0.6737 0.2885 9
-0.0200 1.6966 0.6748 0.3549 36
-0.0200 1.6896 0.6717 0.4198 36
-0.0200 1.6859 0.6695 0.4861 32
-0.0200 1.6797 0.6620 0.2860 16
-0.0200 1.6988 0.6692 0.3549 34
-0.0200 1.6937 0.6665 0.4202 34
-0.0200 1.6882 0.6637 0.4861 31
-0.0200 1.6839 0.6569 0.2863 23
-0.0200 1.7012 0.6629 0.3549 35
-0.0200 1.6925 0.6589 0.4193 35
-0.0200 1.6852 0.6557 0.4845 27
-0.0200 1.6917 0.6531 0.2872 27
-0.0200 1.6925 0.6528 0.3526 35
-0.0200 1.6984 0.6543 0.4202 33
-0.0200 1.7163 0.6609 0.4928 10
-0.0200 1.6977 0.6486 0.2878 32
-0.0200 1.6874 0.6443 0.3511 34
-0.0200 1.7061 0.6508 0.4216 35
-0.0200 1.8955 0.7223 0.5435 18
-0.0200 1.7036 0.6441 0.2885 31
-0.0200 1.6969 0.6412 0.3526 34
-0.0200 1.6919 0.6386 0.4175 34
-0.0200 1.8402 0.6939 0.5270 23
-0.0200 1.6910 0.6326 0.2860 36
-0.0200 1.6992 0.6353 0.3526 33
-0.0200 1.6941 0.6327 0.4175 33
-0.0200 1.8426 0.6874 0.5270 21
-0.0200 1.7007 0.6294 0.2872 28
-0.0200 1.7051 0.6307 0.3534 23
-0.0200 1.7969 0.6640 0.4423 12
-0.0200 1.8051 0.6663 0.5156 33
-0.0200 1.7214 0.6303 0.2903 6
-0.0200 1.9322 0.7071 0.3999 17
-0.0200 1.8577 0.6791 0.4567 21
-0.0200 1.8509 0.6759 0.5280 29
-0.0200 1.7849 0.6465 0.3007 1
-0.0200 1.9845 0.7184 0.4102 18
-0.0200 1.8674 0.6753 0.4585 30
-0.0200 1.9278 0.6963 0.5492 32
-0.0200 2.5868 0.9267 0.4352 8
-0.0200 1.9685 0.7048 0.4064 27
-0.0200 1.9065 0.6819 0.4674 42
-0.0200 1.9764 0.7003 0.4076 35
-0.0200 1.9142 0.6775 0.4688 41
-0.0200 1.8268 0.6458 0.5192 1
-0.0200 1.7299 0.6065 0.2903 8
-0.0200 1.9177 0.6719 0.3950 10
-0.0200 1.9166 0.6708 0.4688 34
-0.0200 1.8181 0.6356 0.5161 4
-0.0200 1.6910 0.5862 0.2835 23
-0.0200 1.7271 0.5984 0.3553 13
-0.0200 1.9042 0.6590 0.4652 31
-0.0200 1.7966 0.6211 0.5094 17
-0.0200 1.7248 0.5912 0.2888 36
-0.0200 1.7645 0.6041 0.3625 14
-0.0200 1.8974 0.6489 0.4629 35
-0.0200 1.7969 0.6142 0.5088 20
-0.0200 1.7511 0.5934 0.2928 27
-0.0200 1.9024 0.6439 0.3904 4
-0.0200 1.9015 0.6429 0.4634 33
-0.0200 1.8027 0.6091 0.5099 19
-0.0200 2.4185 0.8111 0.3132 2
-0.0200 1.9237 0.6444 0.3213 30
-0.0200 1.8971 0.6351 0.3889 19
-0.0200 1.8980 0.6347 0.4620 42
-0.0200 1.8213 0.6084 0.5145 6
-0.0200 1.9914 0.6598 0.3323 33
-0.0200 1.9225 0.6354 0.4674 44
-0.0200 2.0181 0.6608 0.3363 29
-0.0200 1.8659 0.6106 0.3816 33
-0.0200 1.8931 0.6187 0.4598 15
-0.0200 3.0338 0.9904 0.8551 45
-0.0200 2.2511 0.7292 0.2905 16
-0.0200 2.0260 0.6556 0.3373 28
-0.0200 1.8568 0.6004 0.3793 41
-0.0200 1.7858 0.5768 0.4333 21
-0.0200 3.0428 0.9816 0.8567 14
-0.0200 2.2366 0.7159 0.2883 13
-0.0200 2.2616 0.7231 0.3761 10
-0.0200 1.8383 0.5874 0.3751 25
-0.0200 1.7915 0.5717 0.4342 21
-0.0200 2.4738 0.7885 0.6957 7
-0.0200 2.0138 0.6369 0.2593 17
-0.0200 2.0249 0.6396 0.3363 27
-0.0200 1.7636 0.5567 0.3595 27
-0.0200 1.9162 0.6042 0.4638 26
-0.0200 2.0628 0.6464 0.0377 1
-0.0200 1.9833 0.6204 0.1818 2
-0.0200 2.0255 0.6328 0.2606 40
-0.0200 1.7768 0.5541 0.3618 32
-0.0200 2.9022 0.9045 -0.1593 1
-0.0200 1.9945 0.6212 0.4823 31
-0.0200 2.9518 0.9188 -0.0540 1
-0.0200 2.4884 0.7741 0.6983 15
-0.0200 2.0211 0.6256 0.0369 4
-0.0200 1.9768 0.6112 0.1084 1
-0.0200 2.0296 0.6263 0.2608 44
-0.0200 2.4201 0.7459 0.4011 32
-0.0200 1.8444 0.5681 0.3751 29
-0.0200 2.8557 0.8791 -0.1566 10
-0.0200 2.0004 0.6154 0.4832 31
-0.0200 2.8786 0.8850 -0.0526 6
-0.0200 1.9812 0.6057 0.0362 20
-0.0200 2.0133 0.6148 0.1103 17
-0.0200 2.0162 0.6152 0.1844 5
-0.0200 2.0223 0.6163 0.2596 32
-0.0200 2.4510 0.7461 0.4058 30
-0.0200 1.8726 0.5697 0.3805 29
-0.0200 2.8492 0.8662 -0.1561 15
-0.0200 1.9970 0.6067 0.4818 29
-0.0200 2.0321 0.6170 -0.0371 2
-0.0200 2.1037 0.6384 0.5891 3
-0.0200 1.9928 0.6017 0.0363 39
-0.0200 2.0001 0.6035 0.1095 2
-0.0200 2.8157 0.8485 0.2573 4
-0.0200 2.0757 0.6247 0.2662 32
-0.0200 1.8841 0.5667 0.3116 10
-0.0200 2.4895 0.7478 0.5053 22
-0.0200 2.8598 0.8585 -0.1565 17
-0.0200 1.9840 0.5956 0.4782 29
-0.0200 2.0226 0.6068 -0.0369 10
-0.0200 2.1169 0.6347 0.5922 3
-0.0200 2.0140 0.6008 0.0367 23
-0.0200 2.7975 0.8329 0.2554 2
-0.0200 2.0112 0.5980 0.2576 21
-0.0200 2.2134 0.6569 0.4488 9
-0.0200 2.8703 0.8513 -0.1569 9
-0.0200 1.9879 0.5896 0.4787 20
-0.0200 2.0189 0.5984 -0.0368 23
-0.0200 2.1227 0.6288 0.5932 3
-0.0200 2.8606 0.8419 0.1563 4
-0.0200 0.7474 0.2198 0.0682 3
-0.0200 2.0208 0.5936 0.2586 17
-0.0200 0.7639 0.2241 0.1261 3
-0.0200 2.0366 0.5971 0.4125 9
-0.0200 1.9693 0.5766 0.4737 10
-0.0200 2.0248 0.5925 -0.0368 32
-0.0200 2.2176 0.6485 0.6191 1
-0.0200 0.8314 0.2419 0.0151 3
-0.0200 0.7480 0.2173 0.0408 3
-0.0200 0.7405 0.2150 0.0675 3
-0.0200 2.0419 0.5921 0.2610 8
-0.0200 0.7457 0.2159 0.1230 4
-0.0200 2.0481 0.5927 0.4144 3
-0.0200 2.0364 0.5882 -0.0370 8
-0.0200 0.7294 0.2105 0.2034 2
-0.0200 0.7180 0.2059 0.0391 3
-0.0200 0.7259 0.2080 0.0661 3
-0.0200 0.7274 0.2079 0.1198 4
-0.0200 2.0426 0.5834 0.4129 1
-0.0200 0.7627 0.2176 0.1831 2
-0.0200 0.7339 0.2091 0.2045 2
-0.0200 0.8331 0.2360 0.0151 3
-0.0200 0.7380 0.2088 0.0402 3
-0.0200 0.7343 0.2076 0.0668 3
-0.0200 0.7393 0.2088 0.0943 5
-0.0200 0.7282 0.2054 0.1198 4
-0.0200 0.7672 0.2162 0.1549 3
-0.0200 0.7860 0.2212 0.1885 2
-0.0200 0.7551 0.2122 0.2102 4
-0.0200 0.8339 0.2331 0.0151 3
-0.0200 0.7310 0.2041 0.0398 3
-0.0200 0.7619 0.2126 0.0692 3
-0.0200 0.7859 0.2190 0.1002 9
-0.0200 0.7517 0.2092 0.1236 8
-0.0200 0.7887 0.2193 0.1591 6
-0.0200 0.7905 0.2195 0.1894 7
-0.0200 0.7372 0.2044 0.2050 8
-0.0200 0.7807 0.2153 0.0141 3
-0.0200 0.7664 0.2111 0.0417 6
-0.0200 0.7761 0.2136 0.0704 9
-0.0200 0.7867 0.2162 0.1002 19
-0.0200 0.7582 0.2081 0.1245 16
-0.0200 0.7895 0.2166 0.1591 13
-0.0200 0.7474 0.2049 -0.0406 5
-0.0200 0.7706 0.2111 0.1845 37
-0.0200 0.7379 0.2019 0.2050 36
-0.0200 0.7467 0.2032 0.0135 4
-0.0200 0.7825 0.2126 0.0425 25
-0.0200 0.7710 0.2093 0.0699 32
-0.0200 0.7798 0.2114 0.0992 60
-0.0200 0.7646 0.2070 0.1255 31
-0.0200 0.7543 0.2041 0.1519 56
-0.0200 0.7866 0.2127 -0.0427 5
-0.0200 0.7807 0.2109 0.1867 52
-0.0200 0.7405 0.1998 0.2055 42
-0.0200 0.7610 0.2042 0.0138 12
-0.0200 0.7794 0.2088 0.0423 37
-0.0200 0.7602 0.2036 0.0689 39
-0.0200 0.7690 0.2056 0.0977 46
-0.0200 0.7691 0.2054 0.1261 34
-0.0200 0.7550 0.2014 0.1519 52
-0.0200 0.7874 0.2099 -0.0427 5
-0.0200 0.7626 0.2032 0.1822 60
-0.0200 0.7225 0.1922 0.2003 45
-0.0200 1.1959 0.5905 0.0233 1
-0.0200 1.1535 0.5691 0.0674 1
-0.0200 1.2294 0.6063 0.1199 1
-0.0200 1.2109 0.5966 0.1657 1
-0.0200 1.1896 0.5859 -0.1628 2
-0.0200 1.1821 0.5819 0.2087 1
-0.0200 1.1762 0.5790 -0.1147 4
-0.0200 1.7087 0.8408 0.3702 32
-0.0200 1.1918 0.5862 -0.0696 4
-0.0200 1.6999 0.8357 0.4373 33
-0.0200 1.2132 0.5962 -0.0236 8
-0.0200 1.6750 0.8228 0.5000 32
-0.0200 1.2070 0.5908 0.0235 1
-0.0200 1.1698 0.5721 0.0682 1
-0.0200 1.2279 0.6002 0.1196 1
-0.0200 1.2022 0.5871 0.1643 1
-0.0200 1.1988 0.5852 -0.1638 2
-0.0200 1.2019 0.5865 0.2118 1
-0.0200 1.1836 0.5775 -0.1152 4
-0.0200 1.7010 0.8297 0.3679 34
-0.0200 1.1957 0.5829 -0.0697 7
-0.0200 1.7063 0.8315 0.4382 31
-0.0200 1.2009 0.5849 -0.0233 12
-0.0200 1.6744 0.8152 0.4990 32
-0.0200 1.1982 0.5813 0.0232 1
-0.0200 1.1681 0.5665 0.0680 1
-0.0200 1.2193 0.5907 0.1185 1
-0.0200 1.1900 0.5760 0.1623 1
-0.0200 1.2008 0.5810 -0.1638 2
-0.0200 1.2234 0.5919 0.2153 1
-0.0200 1.1946 0.5777 -0.1161 4
-0.0200 1.7004 0.8220 0.3671 33
-0.0200 1.1941 0.5770 -0.0695 12
-0.0200 1.7092 0.8255 0.4382 33
-0.0200 1.2136 0.5862 -0.0235 19
-0.0200 1.6841 0.8130 0.5011 32
-0.0200 1.2056 0.5799 0.0234 1
-0.0200 1.1791 0.5667 0.0686 3
-0.0200 1.2141 0.5830 0.1178 2
-0.0200 1.1704 0.5618 0.1594 1
-0.0200 1.2027 0.5770 -0.1638 2
-0.0200 1.1845 0.5680 0.2081 1
-0.0200 1.1984 0.5744 -0.1163 4
-0.0200 1.7066 0.8181 0.3679 33
-0.0200 1.1960 0.5730 -0.0695 12
-0.0200 1.6978 0.8131 0.4346 34
-0.0200 1.2121 0.5802 -0.0235 23
-0.0200 1.6869 0.8071 0.5011 32
-0.0200 1.2076 0.5757 0.0234 1
-0.0200 1.1937 0.5686 0.0693 8
-0.0200 1.2233 0.5824 0.1185 2
-0.0200 1.1867 0.5645 0.1614 1
-0.0200 1.1940 0.5677 -0.1623 1
-0.0200 1.2203 0.5800 0.2140 2
-0.0200 1.2058 0.5728 -0.1168 4
-0.0200 1.7061 0.8101 0.3671 34
-0.0200 1.2035 0.5712 -0.0698 12
-0.0200 1.6936 0.8038 0.4328 34
-0.0200 1.2051 0.5717 -0.0233 29
-0.0200 1.6844 0.7988 0.4995 30
-0.0200 1.2024 0.5679 0.0232 1
-0.0200 1.1705 0.5523 0.0678 1
-0.0200 1.2001 0.5660 0.1161 1
-0.0200 1.2139 0.5720 0.1648 1
-0.0200 1.2068 0.5684 -0.1638 1
-0.0200 1.1921 0.5612 0.2087 1
-0.0200 1.2079 0.5684 -0.1168 2
-0.0200 1.7126 0.8055 0.3679 33
-0.0200 1.2074 0.5676 -0.0699 10
-0.0200 1.7001 0.7993 0.4337 33
-0.0200 1.2090 0.5681 -0.0233 31
-0.0200 1.6699 0.7844 0.4943 29
-0.0200 1.1882 0.5558 0.0229 1
-0.0200 1.1471 0.5363 0.0664 1
-0.0200 1.1806 0.5515 0.1140 1
-0.0200 1.1944 0.5575 0.1618 1
-0.0200 1.2084 0.5637 0.2112 1
-0.0200 1.2189 0.5684 -0.1177 1
-0.0200 1.7012 0.7929 0.3648 34
-0.0200 1.2021 0.5600 -0.0695 6
-0.0200 1.7136 0.7980 0.4364 33
-0.0200 1.2091 0.5631 -0.0233 31
-0.0200 1.6761 0.7802 0.4954 30
-0.0200 1.2028 0.5578 0.0231 1
-0.0200 1.1797 0.5466 0.0681 2
-0.0200 1.2024 0.5566 0.1159 1
-0.0200 1.1818 0.5468 0.1599 2
-0.0200 1.2103 0.5595 0.2112 1
-0.0200 1.7109 0.7906 0.3664 33
-0.0200 1.1931 0.5510 -0.0689 1
-0.0200 1.7127 0.7906 0.4355 33
-0.0200 1.2311 0.5680 -0.0237 8
-0.0200 1.6806 0.7751 0.4959 32
-0.0200 1.2083 0.5553 0.0232 2
-0.0200 1.1725 0.5385 0.0676 2
-0.0200 1.1970 0.5493 0.1152 2
-0.0200 1.2090 0.5543 0.1633 2
-0.0200 1.2193 0.5588 0.2124 2
-0.0200 1.6994 0.7780 0.3633 33
-0.0200 1.3657 0.6250 -0.0787 1
-0.0200 1.6906 0.7733 0.4292 33
-0.0200 1.2711 0.5814 -0.0244 2
-0.0200 1.6867 0.7711 0.4969 31
-0.0200 1.2284 0.5595 0.0236 2
-0.0200 1.2034 0.5477 0.0693 3
-0.0200 1.2188 0.5542 0.1171 4
-0.0200 1.2090 0.5495 0.1631 5
-0.0200 1.2213 0.5545 0.2124 4
-0.0200 1.7091 0.7756 0.3648 32
-0.0200 1.2005 0.5446 -0.0691 1
-0.0200 1.7038 0.7725 0.4319 33
-0.0200 1.6876 0.7645 0.4964 31
-0.0200 1.2230 0.5520 0.0234 5
-0.0200 1.2108 0.5459 0.0696 11
-0.0200 1.2116 0.5460 0.1163 9
-0.0200 1.2236 0.5509 0.1648 9
-0.0200 1.2106 0.5446 0.2102 9
-0.0200 1.1975 0.5384 -0.1149 1
-0.0200 1.7082 0.7681 0.3641 32
-0.0200 1.1368 0.5109 -0.0653 1
-0.0200 1.6959 0.7618 0.4292 31
-0.0200 1.6797 0.7538 0.4933 31
-0.0200 1.2213 0.5460 0.0234 4
-0.0200 1.2255 0.5474 0.0703 5
-0.0200 1.2081 0.5391 0.1157 5
-0.0200 1.2292 0.5483 0.1653 5
-0.0200 1.2269 0.5468 0.2128 5
-0.0200 1.2540 0.5586 -0.1201 1
-0.0200 1.7003 0.7570 0.3618 35
-0.0200 1.7093 0.7603 0.4319 33
-0.0200 1.6752 0.7448 0.4912 31
-0.0200 1.2233 0.5416 0.0234 2
-0.0200 1.1945 0.5286 0.0685 3
-0.0200 1.2118 0.5357 0.1159 2
-0.0200 1.1948 0.5277 0.1604 2
-0.0200 1.2180 0.5377 0.2109 2
-0.0200 1.3689 0.6041 -0.1309 1
-0.0200 1.6921 0.7463 0.3595 34
-0.0200 1.6995 0.7489 0.4288 35
-0.0200 1.6707 0.7358 0.4892 31
-0.0200 1.2214 0.5359 0.0233 1
-0.0200 1.1561 0.5068 0.0662 1
-0.0200 1.2921 0.5659 0.1234 1
-0.0200 1.2904 0.5643 0.2231 1
-0.0200 1.7018 0.7438 0.3610 36
-0.0200 1.6877 0.7370 0.4252 38
-0.0200 1.6821 0.7339 0.4918 32
-0.0200 1.7080 0.7395 0.3618 36
-0.0200 1.6974 0.7342 0.4270 35
-0.0200 1.6881 0.7298 0.4928 31
-0.0200 1.6996 0.7291 0.3595 36
-0.0200 1.6998 0.7285 0.4270 36
-0.0200 1.6764 0.7178 0.4887 32
-0.0200 1.6949 0.7201 0.3580 36
-0.0200 1.7059 0.7241 0.4279 35
-0.0200 1.6736 0.7097 0.4871 31
-0.0200 1.6921 0.7116 0.3568 38
-0.0200 1.6978 0.7133 0.4252 37
-0.0200 1.6779 0.7046 0.4876 32
-0.0200 1.6927 0.7050 0.3564 36
-0.0200 1.6841 0.7007 0.4211 35
-0.0200 1.6892 0.7025 0.4902 30
-0.0200 1.6987 0.7009 0.3572 35
-0.0200 1.6882 0.6958 0.4216 35
-0.0200 1.6809 0.6922 0.4871 31
-0.0200 1.6731 0.6838 0.2863 1
-0.0200 1.7011 0.6949 0.3572 34
-0.0200 1.6978 0.6929 0.4234 36
-0.0200 1.6780 0.6841 0.4855 31
-0.0200 1.6847 0.6817 0.2878 2
-0.0200 1.6928 0.6843 0.3549 36
-0.0200 1.7040 0.6881 0.4243 35
-0.0200 1.6786 0.6775 0.4850 31
-0.0200 1.6871 0.6755 0.2878 7
-0.0200 1.6897 0.6762 0.3538 38
-0.0200 1.7027 0.6807 0.4234 36
-0.0200 1.6864 0.6735 0.4866 32
-0.0200 1.6950 0.6718 0.2888 11
-0.0200 1.6940 0.6707 0.3541 35
-0.0200 1.6889 0.6680 0.4193 35
-0.0200 1.6816 0.6648 0.4845 32
-0.0200 1.6788 0.6589 0.2856 18
-0.0200 1.6997 0.6668 0.3549 34
-0.0200 1.6838 0.6599 0.4175 35
-0.0200 1.6784 0.6571 0.4830 31
-0.0200 1.6903 0.6567 0.2872 22
-0.0200 1.7020 0.6609 0.3549 34
-0.0200 1.6969 0.6582 0.4202 34
-0.0200 1.6861 0.6533 0.4845 19
-0.0200 1.6962 0.6525 0.2878 32
-0.0200 1.6860 0.6479 0.3511 35
-0.0200 1.7029 0.6537 0.4211 31
-0.0200 1.7892 0.6865 0.5135 10
-0.0200 1.7021 0.6479 0.2885 31
-0.0200 1.6881 0.6423 0.3511 32
