-0.2000 0.2819 -0.9074 0.1847 29
-0.2000 0.2813 -0.9060 -0.0497 7
-0.2000 0.2743 -0.8841 0.2137 26
-0.2000 0.2778 -0.8958 -0.0164 7
-0.2000 0.2762 -0.8913 0.2500 23
-0.2000 0.2782 -0.9019 0.0165 8
-0.2000 0.2175 -0.7058 -0.1705 8
-0.2000 0.2775 -0.9009 0.0494 8
-0.2000 0.2670 -0.8668 -0.1763 4
-0.2000 0.2778 -0.9026 0.0826 7
-0.2000 0.2765 -0.8987 -0.1489 16
-0.2000 0.2823 -0.9184 0.1180 10
-0.2000 0.2752 -0.8956 -0.1150 17
-0.2000 0.2766 -0.9007 0.1492 6
-0.2000 0.2718 -0.8857 -0.0811 13
-0.2000 0.2776 -0.9047 0.1839 26
-0.2000 0.2752 -0.8975 -0.0492 11
-0.2000 0.2730 -0.8906 0.2151 21
-0.2000 0.2764 -0.9025 -0.0165 10
-0.2000 0.2692 -0.8793 0.2464 22
-0.2000 0.2704 -0.8876 0.0162 15
-0.2000 0.2298 -0.7550 -0.1822 7
-0.2000 0.2715 -0.8923 0.0489 14
-0.2000 0.2593 -0.8528 -0.1733 5
-0.2000 0.2722 -0.8960 0.0819 13
-0.2000 0.2697 -0.8884 -0.1470 16
-0.2000 0.2745 -0.9041 0.1160 15
-0.2000 0.2686 -0.8852 -0.1136 18
-0.2000 0.2740 -0.9036 0.1496 10
-0.2000 0.2704 -0.8924 -0.0816 13
-0.2000 0.2709 -0.8944 0.1817 19
-0.2000 0.2743 -0.9061 -0.0496 13
-0.2000 0.2720 -0.8991 0.2169 13
-0.2000 0.2739 -0.9053 -0.0165 10
-0.2000 0.2655 -0.8784 0.2459 17
-0.2000 0.2705 -0.9001 0.0164 14
-0.2000 0.2125 -0.7073 -0.1705 8
-0.2000 0.2716 -0.9048 0.0495 13
-0.2000 0.3127 -1.0417 -0.2114 2
-0.2000 0.2708 -0.9027 0.0824 15
-0.2000 0.2661 -0.8874 -0.1467 17
-0.2000 0.2701 -0.9013 0.1155 15
-0.2000 0.2671 -0.8919 -0.1143 18
-0.2000 0.2724 -0.9103 0.1505 14
-0.2000 0.2672 -0.8933 -0.0816 13
-0.2000 0.2661 -0.8897 0.1805 15
-0.2000 0.2654 -0.8879 -0.0486 15
-0.2000 0.2660 -0.8907 0.2146 13
-0.2000 0.2728 -0.9140 -0.0166 9
-0.2000 0.2662 -0.8923 0.2495 15
-0.2000 0.2685 -0.9048 0.0165 14
-0.2000 0.2100 -0.7081 -0.1705 8
-0.2000 0.2634 -0.8885 0.0486 14
-0.2000 0.3011 -1.0165 -0.2061 2
-0.2000 0.2692 -0.9094 0.0830 12
-0.2000 0.2611 -0.8827 -0.1458 10
-0.2000 0.2635 -0.8909 0.1141 16
-0.2000 0.2606 -0.8814 -0.1129 11
-0.2000 0.2670 -0.9036 0.1492 13
-0.2000 0.2657 -0.9000 -0.0821 10
-0.2000 0.2661 -0.9020 0.1828 14
-0.2000 0.2632 -0.8927 -0.0488 12
-0.2000 0.2595 -0.8804 0.2119 17
-0.2000 0.2668 -0.9054 -0.0165 10
-0.2000 0.2631 -0.8932 0.2495 15
-0.2000 0.2635 -0.9001 0.0164 12
-0.2000 0.2591 -0.8856 0.0484 12
-0.2000 0.2671 -0.9141 0.0833 12
-0.2000 0.2614 -0.8950 -0.1477 6
-0.2000 0.2631 -0.9013 0.1153 10
-0.2000 0.2612 -0.8957 -0.1146 7
-0.2000 0.2622 -0.8989 0.1483 11
-0.2000 0.2654 -0.9105 -0.0830 7
-0.2000 0.2630 -0.9029 0.1828 14
-0.2000 0.2607 -0.8955 -0.0489 9
-0.2000 0.2542 -0.8738 0.2101 14
-0.2000 0.2692 -0.9255 -0.0168 6
-0.2000 0.2599 -0.8941 0.2495 12
-0.2000 0.2633 -0.9105 0.0165 6
-0.2000 0.2538 -0.8788 0.0479 6
-0.2000 0.2595 -0.8997 0.0819 7
-0.2000 0.2606 -0.9034 -0.1489 5
-0.2000 0.2612 -0.9060 0.1158 7
-0.2000 0.2627 -0.9118 -0.1165 7
-0.2000 0.2601 -0.9036 0.1489 6
-0.2000 0.2650 -0.9210 -0.0838 4
-0.2000 0.2589 -0.9000 0.1820 7
-0.2000 0.2594 -0.9022 -0.0492 5
-0.2000 0.2561 -0.8915 0.2142 6
-0.2000 0.2627 -0.9149 -0.0166 6
-0.2000 0.2542 -0.8858 0.2469 7
-0.2000 0.2612 -0.9153 0.0166 6
-0.2000 0.2597 -0.9104 0.0496 5
-0.2000 0.2625 -0.9217 0.0838 4
-0.2000 0.2591 -0.9101 -0.1499 7
-0.2000 0.2634 -0.9260 0.1182 6
-0.2000 0.2595 -0.9127 -0.1165 7
-0.2000 0.2609 -0.9177 0.1511 6
-0.2000 0.2635 -0.9276 -0.0844 6
-0.2000 0.2574 -0.9065 0.1832 5
-0.2000 0.2644 -0.9319 -0.0508 7
-0.2000 0.2578 -0.9093 0.2182 6
-0.2000 0.2662 -0.9388 -0.0170 6
-0.2000 0.2565 -0.9052 0.2521 5
-0.2000 0.2604 -0.9239 0.0168 5
-0.2000 0.2560 -0.9094 0.0495 5
-0.2000 0.2599 -0.9245 0.0840 4
-0.2000 0.2571 -0.9147 -0.1505 7
-0.2000 0.2609 -0.9288 0.1185 6
-0.2000 0.2677 -0.9537 -0.1216 5
-0.2000 0.2662 -0.9491 0.1561 5
-0.2000 0.2635 -0.9400 -0.0854 5
-0.2000 0.2554 -0.9112 0.1839 4
-0.2000 0.2645 -0.9443 -0.0514 6
-0.2000 0.2559 -0.9139 0.2191 5
-0.2000 0.2667 -0.9532 -0.0173 5
-0.2000 0.2549 -0.9116 0.2536 5
-0.2000 0.2614 -0.9402 0.0170 4
-0.2000 0.2528 -0.9103 0.0495 5
-0.2000 0.2653 -0.9561 0.0868 5
-0.2000 0.2650 -0.9556 -0.1571 5
-0.2000 0.2619 -0.9450 0.1204 5
-0.2000 0.2591 -0.9355 -0.1192 6
-0.2000 0.2640 -0.9538 0.1567 4
-0.2000 0.2634 -0.9525 -0.0865 5
-0.2000 0.2564 -0.9272 0.1870 4
-0.2000 0.2676 -0.9683 -0.0526 5
-0.2000 0.2547 -0.9223 0.2209 5
-0.2000 0.2681 -0.9715 -0.0176 5
-0.2000 0.2563 -0.9293 0.2583 4
-0.2000 0.2634 -0.9604 0.0174 4
-0.2000 0.2580 -0.9420 0.0512 4
-0.2000 0.2629 -0.9609 0.0872 4
-0.2000 0.2672 -0.9775 -0.1605 5
-0.2000 0.2628 -0.9612 0.1224 4
-0.2000 0.2600 -0.9517 -0.1211 5
-0.2000 0.2596 -0.9509 0.1561 5
-0.2000 0.2622 -0.9611 -0.0872 4
-0.2000 0.2608 -0.9565 0.1927 4
-0.2000 0.2636 -0.9674 -0.0525 5
-0.2000 0.2534 -0.9307 0.2227 5
-0.2000 0.2642 -0.9705 -0.0176 5
-0.2000 0.2581 -0.9488 0.2635 4
-0.2000 0.2625 -0.9710 0.0176 5
-0.2000 0.2574 -0.9525 0.0517 4
-0.2000 0.2600 -0.9637 0.0873 5
-0.2000 0.2659 -0.9861 -0.1618 5
-0.2000 0.2613 -0.9699 0.1233 4
-0.2000 0.2632 -0.9776 -0.1243 4
-0.2000 0.2583 -0.9594 0.1574 4
-0.2000 0.2588 -0.9620 -0.0872 4
-0.2000 0.2595 -0.9650 0.1942 4
-0.2000 0.2679 -0.9972 -0.0541 5
-0.2000 0.2567 -0.9561 0.2286 4
-0.2000 0.2655 -0.9888 -0.0179 5
-0.2000 0.2568 -0.9572 0.2655 4
-0.2000 0.2624 -0.9834 0.0178 5
-0.2000 0.2633 -0.9881 0.0536 4
-0.2000 0.2799 -1.0510 -0.2114 2
-0.2000 0.2613 -0.9820 0.0889 5
-0.2000 0.2636 -0.9907 -0.1624 5
-0.2000 0.2637 -0.9918 0.1260 4
-0.2000 0.2661 -1.0015 -0.1272 4
-0.2000 0.2621 -0.9871 0.1618 4
-0.2000 0.2647 -0.9975 -0.0903 4
-0.2000 0.2558 -0.9640 0.1939 4
-0.2000 0.2687 -1.0135 -0.0550 5
-0.2000 0.2590 -0.9777 0.2335 4
-0.2000 0.2713 -1.0245 -0.0185 5
-0.2000 0.2545 -0.9618 0.2666 4
-0.2000 0.2620 -0.9960 0.0180 5
-0.2000 0.1878 -0.7143 -0.1705 8
-0.2000 0.2629 -1.0006 0.0542 4
-0.2000 0.2624 -0.9988 -0.2007 2
-0.2000 0.2621 -0.9982 0.0903 5
-0.2000 0.2652 -1.0108 -0.1655 5
-0.2000 0.2623 -1.0004 0.1270 4
-0.2000 0.2671 -1.0197 -0.1294 4
-0.2000 0.2636 -1.0071 0.1649 4
-0.2000 0.2634 -1.0061 -0.0910 4
-0.2000 0.2609 -0.9972 0.2003 4
-0.2000 0.2637 -1.0087 -0.0546 5
-0.2000 0.2571 -0.9842 0.2348 4
-0.2000 0.2647 -1.0139 -0.0183 5
-0.2000 0.2555 -0.9795 0.2712 4
-0.2000 0.2641 -1.0182 0.0184 5
-0.2000 0.2569 -0.9919 0.0537 4
-0.2000 0.2658 -1.0263 -0.2061 2
-0.2000 0.2626 -1.0146 0.0917 5
-0.2000 0.2626 -1.0155 -0.1661 3
-0.2000 0.2598 -1.0052 0.1275 4
-0.2000 0.2656 -1.0283 -0.1304 4
-0.2000 0.2621 -1.0157 0.1661 4
-0.2000 0.2639 -1.0225 -0.0924 4
-0.2000 0.2584 -1.0019 0.2011 4
-0.2000 0.2631 -1.0212 -0.0553 5
-0.2000 0.2580 -1.0021 0.2389 4
-0.2000 0.2681 -1.0419 -0.0188 5
-0.2000 0.2569 -0.9991 0.2764 4
-0.2000 0.2670 -1.0443 0.0188 5
-0.2000 0.2002 -0.7836 -0.1867 6
-0.2000 0.2593 -1.0160 0.0550 4
-0.2000 0.2554 -1.0006 -0.2007 2
-0.2000 0.2620 -1.0271 0.0927 5
-0.2000 0.2669 -1.0471 -0.1711 2
-0.2000 0.2621 -1.0292 0.1304 4
-0.2000 0.2639 -1.0369 -0.1314 4
-0.2000 0.2586 -1.0166 0.1661 4
-0.2000 0.2670 -1.0505 -0.0948 4
-0.2000 0.2645 -1.0408 0.2087 4
-0.2000 0.2660 -1.0473 -0.0566 5
-0.2000 0.2569 -1.0124 0.2411 4
-0.2000 0.2635 -1.0389 -0.0187 5
-0.2000 0.2577 -1.0169 0.2811 4
-0.2000 0.2701 -1.0723 0.0193 5
-0.2000 0.1803 -0.7162 -0.1705 8
-0.2000 0.2582 -1.0266 0.0555 4
-0.2000 0.2412 -0.9596 -0.1923 2
-0.2000 0.2582 -1.0280 0.0927 5
-0.2000 0.2679 -1.0672 -0.1743 2
-0.2000 0.2639 -1.0513 0.1331 4
-0.2000 0.2642 -1.0532 -0.1333 4
-0.2000 0.2593 -1.0347 0.1689 4
-0.2000 0.2638 -1.0533 -0.0950 4
-0.2000 0.2598 -1.0380 0.2080 4
-0.2000 0.2679 -1.0715 -0.0579 5
-0.2000 0.2565 -1.0266 0.2443 4
-0.2000 0.2642 -1.0573 -0.0190 5
-0.2000 0.2546 -1.0196 0.2816 4
-0.2000 0.2638 -1.0636 0.0191 5
-0.2000 0.1777 -0.7169 -0.1705 8
-0.2000 0.2619 -1.0565 0.0570 5
-0.2000 0.2549 -1.0291 -0.2061 2
-0.2000 0.2604 -1.0521 0.0948 5
-0.2000 0.2603 -1.0528 -0.1718 2
-0.2000 0.2619 -1.0599 0.1341 6
-0.2000 0.2689 -1.0889 -0.1377 4
-0.2000 0.2604 -1.0548 0.1721 4
-0.2000 0.2673 -1.0833 -0.0976 4
-0.2000 0.2613 -1.0598 0.2122 4
-0.2000 0.2661 -1.0802 -0.0583 5
-0.2000 0.2599 -1.0559 0.2510 4
-0.2000 0.2653 -1.0777 -0.0194 5
-0.2000 0.2561 -1.0411 0.2873 4
-0.2000 0.2655 -1.0858 0.0195 5
-0.2000 0.1919 -0.7856 -0.1867 6
-0.2000 0.2601 -1.0652 0.0575 5
-0.2000 0.2327 -0.9537 -0.1908 2
-0.2000 0.2642 -1.0840 0.0976 5
-0.2000 0.2568 -1.0536 -0.1718 2
-0.2000 0.2593 -1.0646 0.1345 4
-0.2000 0.2685 -1.1033 -0.1394 6
-0.2000 0.2633 -1.0826 0.1765 4
-0.2000 0.2658 -1.0939 -0.0985 4
-0.2000 0.2601 -1.0702 0.2141 4
-0.2000 0.2639 -1.0869 -0.0586 7
-0.2000 0.2592 -1.0681 0.2537 4
-0.2000 0.2681 -1.1058 -0.0199 5
-0.2000 0.2561 -1.0570 0.2914 4
-0.2000 0.2664 -1.1062 0.0199 5
-0.2000 0.1728 -0.7181 -0.1705 8
-0.2000 0.2605 -1.0836 0.0584 5
-0.2000 0.2644 -1.1004 0.0990 5
-0.2000 0.2550 -1.0622 -0.1730 2
-0.2000 0.2626 -1.0945 0.1382 6
-0.2000 0.2670 -1.1138 -0.1406 6
-0.2000 0.2641 -1.1027 0.1796 4
-0.2000 0.2687 -1.1219 -0.1009 4
-0.2000 0.2632 -1.0998 0.2198 4
-0.2000 0.2653 -1.1092 -0.0598 7
-0.2000 0.2577 -1.0785 0.2560 4
-0.2000 0.2680 -1.1223 -0.0201 7
-0.2000 0.2592 -1.0861 0.2992 4
-0.2000 0.2662 -1.1227 0.0201 5
-0.2000 0.1703 -0.7187 -0.1705 8
-0.2000 0.2618 -1.1059 0.0596 5
-0.2000 0.2624 -1.1090 0.0997 5
-0.2000 0.2549 -1.0785 -0.1755 2
-0.2000 0.2601 -1.1012 0.1389 6
-0.2000 0.2663 -1.1283 -0.1423 6
-0.2000 0.2612 -1.1074 0.1802 4
-0.2000 0.2685 -1.1383 -0.1023 4
-0.2000 0.2630 -1.1160 0.2229 4
-0.2000 0.2683 -1.1392 -0.0613 4
-0.2000 0.2575 -1.0945 0.2596 4
-0.2000 0.2677 -1.1388 -0.0204 5
-0.2000 0.2585 -1.1002 0.3028 4
-0.2000 0.2650 -1.1353 0.0203 5
-0.2000 0.1678 -0.7193 -0.1705 8
-0.2000 0.2613 -1.1203 0.0603 5
-0.2000 0.2630 -1.1293 0.1014 5
-0.2000 0.2512 -1.0793 -0.1755 2
-0.2000 0.2639 -1.1350 0.1431 6
-0.2000 0.2673 -1.1505 -0.1450 4
-0.2000 0.2629 -1.1314 0.1840 6
-0.2000 0.2645 -1.1392 -0.1023 4
-0.2000 0.2604 -1.1226 0.2240 4
-0.2000 0.2692 -1.1616 -0.0625 4
-0.2000 0.2607 -1.1258 0.2668 4
-0.2000 0.2658 -1.1474 -0.0206 7
-0.2000 0.2561 -1.1067 0.3044 4
-0.2000 0.2657 -1.1557 0.0207 5
-0.2000 0.1654 -0.7198 -0.1705 8
-0.2000 0.2637 -1.1485 0.0618 5
-0.2000 0.2626 -1.1458 0.1028 5
-0.2000 0.2494 -1.0879 -0.1768 2
-0.2000 0.2663 -1.1629 0.1465 5
-0.2000 0.2710 -1.1843 -0.1492 6
-0.2000 0.2633 -1.1516 0.1871 4
-0.2000 0.2689 -1.1771 -0.1056 4
-0.2000 0.2589 -1.1330 0.2259 4
-0.2000 0.2698 -1.1819 -0.0635 4
-0.2000 0.2648 -1.1609 0.2749 4
-0.2000 0.2653 -1.1640 -0.0208 7
-0.2000 0.2574 -1.1302 0.3106 4
-0.2000 0.2670 -1.1800 0.0211 5
-0.2000 0.1629 -0.7204 -0.1705 8
-0.2000 0.2649 -1.1728 0.0630 5
-0.2000 0.2632 -1.1661 0.1046 5
-0.2000 0.2421 -1.0733 -0.1743 2
-0.2000 0.2653 -1.1774 0.1482 5
-0.2000 0.2712 -1.2046 -0.1516 6
-0.2000 0.2654 -1.1794 0.1915 4
-0.2000 0.2683 -1.1935 -0.1070 4
-0.2000 0.2614 -1.1627 0.2316 4
-0.2000 0.2679 -1.1926 -0.0641 4
-0.2000 0.2612 -1.1637 0.2753 4
-0.2000 0.2682 -1.1961 -0.0214 7
-0.2000 0.2585 -1.1537 0.3168 4
-0.2000 0.2681 -1.2043 0.0215 5
-0.2000 0.1714 -0.7704 -0.1822 7
-0.2000 0.2630 -1.1835 0.0635 5
-0.2000 0.2641 -1.1904 0.1067 5
-0.2000 0.2441 -1.1012 -0.1786 1
-0.2000 0.2647 -1.1938 0.1501 5
-0.2000 0.2696 -1.2171 -0.1531 6
-0.2000 0.2630 -1.1881 0.1927 4
-0.2000 0.2702 -1.2217 -0.1095 4
-0.2000 0.2656 -1.2020 0.2393 4
-0.2000 0.2670 -1.2092 -0.0649 4
-0.2000 0.2603 -1.1799 0.2789 4
-0.2000 0.2697 -1.2224 -0.0219 7
-0.2000 0.2603 -1.1810 0.3240 4
-0.2000 0.2688 -1.2287 0.0220 5
-0.2000 0.1577 -0.7215 -0.1705 8
-0.2000 0.2636 -1.2058 0.0647 5
-0.2000 0.2651 -1.2147 0.1088 5
-0.2000 0.2352 -1.0789 -0.1749 1
-0.2000 0.2654 -1.2181 0.1531 5
-0.2000 0.2719 -1.2491 -0.1570 6
-0.2000 0.2630 -1.2083 0.1959 4
-0.2000 0.2727 -1.2538 -0.1123 5
-0.2000 0.2647 -1.2182 0.2423 4
-0.2000 0.2695 -1.2413 -0.0666 4
-0.2000 0.2636 -1.2150 0.2870 4
-0.2000 0.2654 -1.2234 -0.0219 7
-0.2000 0.2586 -1.1932 0.3271 4
-0.2000 0.2706 -1.2570 0.0224 5
-0.2000 0.1553 -0.7221 -0.1705 8
-0.2000 0.2644 -1.2302 0.0659 5
-0.2000 0.2625 -1.2234 0.1095 5
-0.2000 0.2325 -1.0835 -0.1755 1
-0.2000 0.2655 -1.2384 0.1555 5
-0.2000 0.2736 -1.2772 -0.1604 4
-0.2000 0.2629 -1.2285 0.1990 4
-0.2000 0.2712 -1.2684 -0.1135 4
-0.2000 0.2623 -1.2268 0.2439 4
-0.2000 0.2700 -1.2637 -0.0677 6
-0.2000 0.2620 -1.2273 0.2897 4
-0.2000 0.2686 -1.2595 -0.0225 6
-0.2000 0.2577 -1.2092 0.3313 4
-0.2000 0.2679 -1.2658 0.0226 5
-0.2000 0.1528 -0.7226 -0.1705 8
-0.2000 0.2653 -1.2545 0.0672 5
-0.2000 0.1826 -0.8644 -0.1717 5
-0.2000 0.2634 -1.2476 0.1116 5
-0.2000 0.2238 -1.0611 -0.1718 1
-0.2000 0.2669 -1.2665 0.1589 5
-0.2000 0.2777 -1.3190 -0.1655 2
-0.2000 0.2637 -1.2526 0.2027 6
-0.2000 0.2719 -1.2927 -0.1156 4
-0.2000 0.2637 -1.2546 0.2492 4
-0.2000 0.2730 -1.2998 -0.0696 6
-0.2000 0.2621 -1.2492 0.2947 4
-0.2000 0.2714 -1.2936 -0.0231 9
-0.2000 0.2580 -1.2309 0.3370 4
-0.2000 0.2702 -1.2980 0.0231 5
-0.2000 0.1504 -0.7231 -0.1705 8
-0.2000 0.2662 -1.2808 0.0686 5
-0.2000 0.1860 -0.8958 -0.1778 4
-0.2000 0.2671 -1.2876 0.1150 5
-0.2000 0.2219 -1.0696 -0.1730 1
-0.2000 0.2651 -1.2790 0.1604 5
-0.2000 0.2778 -1.3413 -0.1682 4
-0.2000 0.2662 -1.2864 0.2081 6
-0.2000 0.2747 -1.3287 -0.1187 4
-0.2000 0.2651 -1.2824 0.2545 4
-0.2000 0.2703 -1.3085 -0.0700 6
-0.2000 0.2651 -1.2844 0.3028 4
-0.2000 0.2722 -1.3200 -0.0235 6
-0.2000 0.2627 -1.2753 0.3489 4
-0.2000 -0.3366 -1.8249 0.0324 2
-0.2000 -0.1341 -0.7263 -0.1705 8
-0.2000 -0.2922 -1.5810 0.0843 1
-0.2000 -0.1791 -0.9691 -0.1916 2
-0.2000 -0.3588 -1.9396 0.1726 3
-0.2000 -0.2097 -1.1324 -0.1824 1
-0.2000 -0.3476 -1.8757 0.2342 2
-0.2000 -0.2719 -1.4658 -0.1830 1
-0.2000 -0.3502 -1.8859 0.3038 2
-0.2000 -0.3685 -1.9844 -0.1766 1
-0.2000 -0.3469 -1.8665 0.3690 2
-0.2000 -0.2199 -1.1821 -0.0630 3
-0.2000 -0.3407 -1.8296 0.4297 1
-0.2000 -0.3632 -1.9481 -0.0346 2
-0.2000 -0.3299 -1.7680 0.4819 3
-0.2000 -0.3681 -1.9574 0.0348 1
-0.2000 -0.1366 -0.7258 -0.1705 8
-0.2000 -0.3014 -1.5996 0.0853 3
-0.2000 -0.1818 -0.9647 -0.1908 2
-0.2000 -0.3596 -1.9070 0.1698 2
-0.2000 -0.2107 -1.1161 -0.1799 2
-0.2000 -0.3509 -1.8569 0.2320 3
-0.2000 -0.2763 -1.4609 -0.1826 1
-0.2000 -0.3531 -1.8652 0.3007 2
-0.2000 -0.3158 -1.6666 0.3297 1
-0.2000 -0.3621 -1.9093 -0.1018 2
-0.2000 -0.3297 -1.7365 0.4081 2
-0.2000 -0.3651 -1.9213 -0.0341 2
-0.2000 -0.3621 -1.9035 0.5192 3
-0.2000 -0.3711 -1.9365 0.0344 1
-0.2000 -0.1392 -0.7253 -0.1705 8
-0.2000 -0.3510 -1.8280 0.0976 3
-0.2000 -0.1910 -0.9949 -0.1969 2
-0.2000 -0.3580 -1.8627 0.1659 3
-0.2000 -0.2131 -1.1076 -0.1786 1
-0.2000 -0.3574 -1.8557 0.2320 9
-0.2000 -0.2822 -1.4639 -0.1830 1
-0.2000 -0.3577 -1.8543 0.2991 2
-0.2000 -0.3347 -1.7329 0.3431 2
-0.2000 -0.3737 -1.9335 -0.1032 2
-0.2000 -0.3428 -1.7717 0.4166 1
-0.2000 -0.3718 -1.9200 -0.0341 2
-0.2000 -0.3695 -1.9060 0.5202 2
-0.2000 -0.3779 -1.9351 0.0344 1
-0.2000 -0.1417 -0.7249 -0.1705 8
-0.2000 -0.3724 -1.9033 0.1016 4
-0.2000 -0.1930 -0.9865 -0.1954 2
-0.2000 -0.3599 -1.8379 0.1639 1
-0.2000 -0.2132 -1.0875 -0.1755 2
-0.2000 -0.3638 -1.8545 0.2320 4
-0.2000 -0.2903 -1.4784 -0.1850 1
-0.2000 -0.3558 -1.8104 0.2922 1
-0.2000 -0.3647 -1.8553 -0.1654 1
-0.2000 -0.3623 -1.8416 0.3648 3
-0.2000 -0.3786 -1.9224 -0.1027 1
-0.2000 -0.3113 -1.5793 0.3716 2
-0.2000 -0.3812 -1.9325 -0.0344 2
-0.2000 -0.3585 -1.8157 0.4959 1
-0.2000 -0.3831 -1.9260 0.0343 2
-0.2000 -0.1442 -0.7244 -0.1705 8
-0.2000 -0.3747 -1.8804 0.1005 20
-0.2000 -0.1980 -0.9935 -0.1969 2
-0.2000 -0.3293 -1.6510 0.1473 2
-0.2000 -0.2231 -1.1177 -0.1805 1
-0.2000 -0.3563 -1.7831 0.2233 2
-0.2000 -0.2908 -1.4541 -0.1821 1
-0.2000 -0.3335 -1.6658 0.2691 1
-0.2000 -0.2155 -1.0764 -0.0960 1
-0.2000 -0.3687 -1.8403 0.3648 3
-0.2000 -0.3766 -1.8780 -0.1004 1
-0.2000 -0.3590 -1.7883 0.4211 2
-0.2000 -0.3777 -1.8801 -0.0335 1
-0.2000 -0.3390 -1.6856 0.4607 1
-0.2000 -0.3886 -1.9187 0.0342 6
-0.2000 -0.1545 -0.7620 -0.1795 7
-0.2000 -0.3872 -1.9084 0.1021 6
-0.2000 -0.1999 -0.9851 -0.1954 2
-0.2000 -0.3236 -1.5933 0.1422 5
-0.2000 -0.2231 -1.0976 -0.1774 1
-0.2000 -0.3625 -1.7818 0.2233 2
-0.2000 -0.2975 -1.4608 -0.1830 1
-0.2000 -0.3330 -1.6336 0.2641 1
-0.2000 -0.4059 -1.9913 -0.1778 1
-0.2000 -0.3736 -1.8313 0.3633 2
-0.2000 -0.3936 -1.9275 -0.1031 4
-0.2000 -0.3679 -1.8004 0.4243 2
-0.2000 -0.3983 -1.9474 -0.0347 1
-0.2000 -0.3654 -1.7847 0.4881 2
-0.2000 -0.3961 -1.9213 0.0342 7
-0.2000 -0.1595 -0.7730 -0.1822 7
-0.2000 -0.4004 -1.9404 0.1038 5
-0.2000 -0.2176 -1.0536 -0.2091 2
-0.2000 -0.3618 -1.7502 0.1564 4
-0.2000 -0.2309 -1.1162 -0.1805 2
-0.2000 -0.3438 -1.6600 0.2082 2
-0.2000 -0.3063 -1.4793 -0.1855 2
-0.2000 -0.3680 -1.7757 0.2872 2
-0.2000 -0.4132 -1.9918 -0.1780 2
-0.2000 -0.3768 -1.8146 0.3602 3
-0.2000 -0.4011 -1.9301 -0.1033 2
-0.2000 -0.3699 -1.7801 0.4198 2
-0.2000 -0.3913 -1.8814 -0.0335 2
-0.2000 -0.3737 -1.7948 0.4912 2
-0.2000 -0.4070 -1.9415 0.0346 2
-0.2000 -0.1637 -0.7800 -0.1840 6
-0.2000 -0.4060 -1.9351 0.1036 4
-0.2000 -0.2026 -0.9645 -0.1916 2
-0.2000 -0.4053 -1.9283 0.1724 7
-0.2000 -0.2355 -1.1192 -0.1812 2
-0.2000 -0.3260 -1.5482 0.1943 5
-0.2000 -0.3055 -1.4510 -0.1821 2
-0.2000 -0.3784 -1.7957 0.2907 2
-0.2000 -0.4198 -1.9904 -0.1780 2
-0.2000 -0.3828 -1.8133 0.3602 3
-0.2000 -0.4112 -1.9463 -0.1043 2
-0.2000 -0.3791 -1.7942 0.4234 2
-0.2000 -0.3967 -1.8762 -0.0335 7
-0.2000 -0.3796 -1.7936 0.4912 2
-0.2000 -0.4139 -1.9421 0.0347 2
-0.2000 -0.1622 -0.7604 -0.1795 7
-0.2000 -0.4149 -1.9435 0.1041 4
-0.2000 -0.2049 -0.9600 -0.1908 2
-0.2000 -0.4080 -1.9094 0.1708 7
-0.2000 -0.2350 -1.0991 -0.1780 2
-0.2000 -0.3444 -1.6092 0.2021 2
-0.2000 -0.3172 -1.4810 -0.1860 1
-0.2000 -0.3830 -1.7866 0.2894 2
-0.2000 -0.4247 -1.9812 -0.1773 1
-0.2000 -0.3822 -1.7814 0.3541 3
-0.2000 -0.4139 -1.9274 -0.1033 2
-0.2000 -0.3821 -1.7776 0.4198 2
-0.2000 -0.4046 -1.8807 -0.0336 11
-0.2000 -0.3818 -1.7734 0.4861 2
-0.2000 -0.4185 -1.9309 0.0345 1
-0.2000 -0.1673 -0.7713 -0.1822 7
-0.2000 -0.4183 -1.9264 0.1033 15
-0.2000 -0.2099 -0.9670 -0.1923 2
-0.2000 -0.4286 -1.9723 0.1766 3
-0.2000 -0.2405 -1.1060 -0.1793 2
-0.2000 -0.3775 -1.7341 0.2179 1
-0.2000 -0.3182 -1.4605 -0.1835 2
-0.2000 -0.3716 -1.7042 0.2763 2
-0.2000 -0.3859 -1.7685 0.3519 3
-0.2000 -0.4164 -1.9064 -0.1023 1
-0.2000 -0.3816 -1.7458 0.4126 2
-0.2000 -0.4150 -1.8968 -0.0339 4
-0.2000 -0.3839 -1.7532 0.4809 2
-0.2000 -0.4274 -1.9392 0.0347 1
-0.2000 -0.1700 -0.7707 -0.1822 7
-0.2000 -0.4254 -1.9269 0.1034 5
-0.2000 -0.2142 -0.9700 -0.1931 2
-0.2000 -0.4333 -1.9610 0.1757 2
-0.2000 -0.2461 -1.1129 -0.1805 2
-0.2000 -0.3638 -1.6436 0.2067 1
-0.2000 -0.3233 -1.4594 -0.1835 2
-0.2000 -0.3373 -1.5216 0.2469 3
-0.2000 -0.4092 -1.8460 -0.1654 1
-0.2000 -0.3904 -1.7595 0.3503 3
-0.2000 -0.3860 -1.7368 0.4108 2
-0.2000 -0.4212 -1.8934 -0.0339 1
-0.2000 -0.3908 -1.7556 0.4819 2
-0.2000 -0.4333 -1.9337 0.0346 10
-0.2000 -0.1727 -0.7701 -0.1822 7
-0.2000 -0.2365 -1.0536 -0.2099 2
-0.2000 -0.4336 -1.9303 0.1731 2
-0.2000 -0.2509 -1.1159 -0.1812 2
-0.2000 -0.3869 -1.7198 0.2164 2
-0.2000 -0.3266 -1.4505 -0.1826 1
-0.2000 -0.3439 -1.5262 0.2478 3
-0.2000 -0.3922 -1.7390 0.3465 3
-0.2000 -0.4332 -1.9190 -0.1031 1
-0.2000 -0.3891 -1.7222 0.4076 2
-0.2000 -0.4233 -1.8724 -0.0335 3
-0.2000 -0.3910 -1.7278 0.4747 2
-0.2000 -0.4396 -1.9303 0.0346 13
-0.2000 -0.1641 -0.7201 -0.1705 8
-0.2000 -0.4406 -1.9317 0.1038 49
-0.2000 -0.2454 -1.0757 -0.2145 2
-0.2000 -0.4403 -1.9288 0.1731 7
-0.2000 -0.2539 -1.1112 -0.1805 2
-0.2000 -0.3938 -1.7223 0.2169 3
-0.2000 -0.3423 -1.4958 -0.1884 1
-0.2000 -0.3876 -1.6925 0.2750 3
-0.2000 -0.3974 -1.7337 0.3457 2
-0.2000 -0.4399 -1.9175 -0.1031 1
-0.2000 -0.3946 -1.7189 0.4072 2
-0.2000 -0.4357 -1.8963 -0.0340 5
-0.2000 -0.3961 -1.7227 0.4736 2
-0.2000 -0.1666 -0.7195 -0.1705 8
-0.2000 -0.4397 -1.8970 0.1021 16
-0.2000 -0.2456 -1.0596 -0.2114 2
-0.2000 -0.4462 -1.9234 0.1727 7
-0.2000 -0.2560 -1.1026 -0.1793 2
-0.2000 -0.3967 -1.7074 0.2152 2
-0.2000 -0.2801 -1.2046 -0.1518 1
-0.2000 -0.4070 -1.7489 0.2844 3
-0.2000 -0.4285 -1.8416 -0.1654 1
-0.2000 -0.3816 -1.6387 0.3270 2
-0.2000 -0.4466 -1.9159 -0.1031 1
-0.2000 -0.3980 -1.7061 0.4045 2
-0.2000 -0.4387 -1.8792 -0.0337 2
-0.2000 -0.4013 -1.7175 0.4726 2
-0.2000 -0.4393 -1.8688 0.0335 43
-0.2000 -0.1852 -0.7872 -0.1867 6
-0.2000 -0.4454 -1.8916 0.1018 48
-0.2000 -0.2322 -0.9861 -0.1969 2
-0.2000 -0.4538 -1.9257 0.1731 4
-0.2000 -0.2598 -1.1017 -0.1793 2
-0.2000 -0.3990 -1.6905 0.2133 2
-0.2000 -0.2578 -1.0915 -0.1377 1
-0.2000 -0.4104 -1.7359 0.2825 2
-0.2000 -0.2525 -1.0684 -0.0960 1
-0.2000 -0.3458 -1.4615 0.2919 3
-0.2000 -0.4532 -1.9144 -0.1031 1
-0.2000 -0.3936 -1.6611 0.3941 2
-0.2000 -0.4356 -1.8368 -0.0330 1
-0.2000 -0.4064 -1.7124 0.4716 2
-0.2000 -0.1889 -0.7904 -0.1876 6
-0.2000 -0.2329 -0.9738 -0.1946 2
-0.2000 -0.4503 -1.8815 0.1693 1
-0.2000 -0.2655 -1.1084 -0.1805 2
-0.2000 -0.4040 -1.6852 0.2128 2
-0.2000 -0.3172 -1.3223 -0.1670 1
-0.2000 -0.4136 -1.7230 0.2806 2
-0.2000 -0.2563 -1.0675 -0.0960 1
-0.2000 -0.3573 -1.4871 0.2973 4
-0.2000 -0.4599 -1.9128 -0.1031 1
-0.2000 -0.3584 -1.4892 0.3536 2
-0.2000 -0.4420 -1.8352 -0.0330 1
-0.2000 -0.4096 -1.6997 0.4685 2
-0.2000 -0.1742 -0.7177 -0.1705 8
-0.2000 -0.4563 -1.8787 0.1013 1
-0.2000 -0.2502 -1.0302 -0.2061 2
-0.2000 -0.2740 -1.1267 -0.1837 2
-0.2000 -0.4089 -1.6800 0.2123 2
-0.2000 -0.3556 -1.4600 -0.1845 1
-0.2000 -0.4140 -1.6985 0.2769 2
-0.2000 -0.4067 -1.6670 0.3335 3
-0.2000 -0.4666 -1.9112 -0.1031 1
-0.2000 -0.3450 -1.4122 0.3356 4
-0.2000 -0.4503 -1.8415 -0.0331 1
-0.2000 -0.4137 -1.6907 0.4664 2
-0.2000 -0.1944 -0.7890 -0.1876 6
-0.2000 -0.4695 -1.9043 0.1028 1
-0.2000 -0.2464 -0.9988 -0.2000 2
-0.2000 -0.4427 -1.7931 0.1616 1
-0.2000 -0.2696 -1.0912 -0.1780 2
-0.2000 -0.4133 -1.6727 0.2116 2
-0.2000 -0.3579 -1.4472 -0.1830 1
-0.2000 -0.4181 -1.6893 0.2756 3
-0.2000 -0.2639 -1.0656 -0.0960 1
-0.2000 -0.4166 -1.6807 0.3366 3
-0.2000 -0.4736 -1.9094 -0.1031 1
-0.2000 -0.3789 -1.5263 0.3631 3
-0.2000 -0.4548 -1.8321 -0.0330 2
-0.2000 -0.3991 -1.6068 0.4436 2
-0.2000 -0.1793 -0.7165 -0.1705 8
-0.2000 -0.4713 -1.8833 0.1017 1
-0.2000 -0.2490 -0.9941 -0.1992 2
-0.2000 -0.4616 -1.8418 0.1661 2
-0.2000 -0.2802 -1.1170 -0.1824 2
-0.2000 -0.4166 -1.6597 0.2101 2
-0.2000 -0.3678 -1.4652 -0.1855 2
-0.2000 -0.4192 -1.6687 0.2725 2
-0.2000 -0.2613 -1.0396 -0.0938 1
-0.2000 -0.4186 -1.6640 0.3335 3
-0.2000 -0.4549 -1.8071 -0.0977 2
-0.2000 -0.4144 -1.6460 0.3919 2
-0.2000 -0.4563 -1.8111 -0.0326 2
-0.2000 -0.3537 -1.4031 0.3877 3
-0.2000 -0.5053 -1.9926 0.0359 1
-0.2000 -0.1817 -0.7159 -0.1705 8
-0.2000 -0.4820 -1.8991 0.1027 3
-0.2000 -0.2484 -0.9781 -0.1962 2
-0.2000 -0.4613 -1.8151 0.1639 2
-0.2000 -0.2790 -1.0970 -0.1793 2
-0.2000 -0.4211 -1.6544 0.2096 2
-0.2000 -0.3726 -1.4640 -0.1855 1
-0.2000 -0.4286 -1.6826 0.2750 2
-0.2000 -0.2790 -1.0947 -0.0988 1
-0.2000 -0.4222 -1.6550 0.3320 3
-0.2000 -0.4649 -1.8210 -0.0985 1
-0.2000 -0.4203 -1.6465 0.3923 2
-0.2000 -0.4657 -1.8232 -0.0328 1
-0.2000 -0.3569 -1.3963 0.3862 4
-0.2000 -0.4960 -1.9290 0.0348 1
-0.2000 -0.1986 -0.7719 -0.1840 6
-0.2000 -0.4990 -1.9380 0.1049 1
-0.2000 -0.2556 -0.9924 -0.1992 2
-0.2000 -0.4693 -1.8213 0.1646 2
-0.2000 -0.2846 -1.1037 -0.1805 2
-0.2000 -0.4261 -1.6511 0.2094 2
-0.2000 -0.3747 -1.4511 -0.1840 1
-0.2000 -0.4295 -1.6620 0.2719 3
-0.2000 -0.2747 -1.0629 -0.0960 1
-0.2000 -0.4296 -1.6612 0.3335 3
-0.2000 -0.4769 -1.8427 -0.0998 1
-0.2000 -0.4202 -1.6224 0.3869 2
-0.2000 -0.4701 -1.8138 -0.0327 1
-0.2000 -0.3982 -1.5353 0.4250 3
-0.2000 -0.2110 -0.8094 -0.2241 5
-0.2000 -0.4987 -1.9117 0.0345 1
-0.2000 -0.1865 -0.7146 -0.1705 8
-0.2000 -0.2640 -1.0105 -0.2030 2
-0.2000 -0.4757 -1.8197 0.1646 2
-0.2000 -0.2875 -1.0989 -0.1799 2
-0.2000 -0.4454 -1.7015 0.2160 2
-0.2000 -0.3858 -1.4729 -0.1869 1
-0.2000 -0.4313 -1.6452 0.2694 3
-0.2000 -0.4795 -1.8290 -0.1654 1
-0.2000 -0.4324 -1.6483 0.3312 3
-0.2000 -0.4239 -1.6134 0.3851 2
-0.2000 -0.4805 -1.8276 -0.0330 1
-0.2000 -0.4271 -1.6235 0.4498 3
-0.2000 -0.5064 -1.9138 0.0346 1
-0.2000 -0.1890 -0.7140 -0.1705 8
-0.2000 -0.2544 -0.9603 -0.1931 2
-0.2000 -0.4779 -1.8026 0.1632 1
-0.2000 -0.2923 -1.1017 -0.1805 2
-0.2000 -0.4514 -1.6999 0.2160 2
-0.2000 -0.3940 -1.4830 -0.1884 1
-0.2000 -0.4310 -1.6208 0.2656 2
-0.2000 -0.4859 -1.8273 -0.1654 1
-0.2000 -0.4362 -1.6392 0.3297 3
-0.2000 -0.5062 -1.9011 -0.1031 1
-0.2000 -0.4295 -1.6119 0.3851 2
-0.2000 -0.4724 -1.7718 -0.0320 1
-0.2000 -0.4288 -1.6071 0.4457 3
-0.2000 -0.5068 -1.8889 0.0341 1
-0.2000 -0.2097 -0.7811 -0.1867 6
-0.2000 -0.4996 -1.8594 0.1009 1
-0.2000 -0.2680 -0.9973 -0.2007 2
-0.2000 -0.4868 -1.8105 0.1640 1
-0.2000 -0.2962 -1.1006 -0.1805 1
-0.2000 -0.4480 -1.6638 0.2116 1
-0.2000 -0.4044 -1.5008 -0.1908 1
-0.2000 -0.4356 -1.6155 0.2650 2
-0.2000 -0.4922 -1.8256 -0.1654 1
-0.2000 -0.4368 -1.6187 0.3259 3
-0.2000 -0.4868 -1.8029 -0.0979 1
-0.2000 -0.4341 -1.6066 0.3842 2
-0.2000 -0.4807 -1.7779 -0.0321 1
-0.2000 -0.4314 -1.5944 0.4426 2
-0.2000 -0.2858 -1.8943 0.0334 1
-0.2000 -0.2861 -1.8919 0.1003 5
-0.2000 -0.2896 -1.9128 0.1693 4
-0.2000 -0.2860 -1.8841 0.2340 2
-0.2000 -0.2920 -1.9197 0.3076 3
-0.2000 -0.2906 -1.9079 0.3751 3
-0.2000 -0.2935 -1.9251 -0.1021 1
-0.2000 -0.2870 -1.8802 0.4391 3
-0.2000 -0.2964 -1.9392 -0.0342 3
-0.2000 -0.2908 -1.9001 0.5150 2
-0.2000 -0.2979 -1.9288 0.0341 1
-0.2000 -0.2918 -1.8849 0.1000 1
-0.2000 -0.2957 -1.9058 0.1687 2
-0.2000 -0.2852 -1.8360 0.2281 1
-0.2000 -0.2969 -1.9070 0.3057 3
-0.2000 -0.3003 -1.9243 0.3786 3
-0.2000 -0.3037 -1.9437 -0.1031 1
-0.2000 -0.2966 -1.8964 0.4432 2
-0.2000 -0.3016 -1.9283 -0.0341 1
-0.2000 -0.2983 -1.9048 0.5166 1
-0.2000 -0.3050 -1.9277 0.0341 1
-0.2000 -0.2990 -1.8878 0.1002 2
-0.2000 -0.2977 -1.8753 0.1661 2
-0.2000 -0.2913 -1.8310 0.2277 1
-0.2000 -0.3067 -1.9254 0.3088 2
-0.2000 -0.3064 -1.9193 0.3778 2
-0.2000 -0.3105 -1.9426 -0.1031 1
-0.2000 -0.3042 -1.9012 0.4445 2
-0.2000 -0.2846 -1.7791 -0.0314 1
-0.2000 -0.3055 -1.9075 0.5176 1
-0.2000 -0.3085 -1.9089 0.0338 2
-0.2000 -0.3069 -1.8947 0.1006 3
-0.2000 -0.2889 -1.7798 0.1578 1
-0.2000 -0.3095 -1.9045 0.2369 3
-0.2000 -0.3128 -1.9204 0.3082 3
-0.2000 -0.3118 -1.9125 0.3767 3
-0.2000 -0.3102 -1.8982 0.4441 2
-0.2000 -0.2909 -1.7781 -0.0314 1
-0.2000 -0.3066 -1.8721 0.5083 1
-0.2000 -0.3174 -1.9217 0.0340 1
-0.2000 -0.1205 -0.7287 -0.1705 8
-0.2000 -0.3132 -1.8916 0.1005 3
-0.2000 -0.3101 -1.8712 0.1659 2
-0.2000 -0.3178 -1.9132 0.2381 4
-0.2000 -0.3198 -1.9213 0.3085 4
-0.2000 -0.3298 -1.9791 -0.1755 1
-0.2000 -0.3204 -1.9230 0.3789 4
-0.2000 -0.3237 -1.9405 -0.1031 1
-0.2000 -0.3049 -1.8260 0.4274 1
-0.2000 -0.3116 -1.8639 -0.0330 1
-0.2000 -0.3099 -1.8520 0.5031 1
-0.2000 -0.3221 -1.9087 0.0338 2
-0.2000 -0.1230 -0.7283 -0.1705 8
-0.2000 -0.3208 -1.8964 0.1008 3
-0.2000 -0.1770 -1.0453 -0.2061 2
-0.2000 -0.3213 -1.8956 0.1682 1
-0.2000 -0.1960 -1.1549 -0.1855 1
-0.2000 -0.3241 -1.9101 0.2379 3
-0.2000 -0.3275 -1.9260 0.3094 4
-0.2000 -0.3507 -2.0604 -0.1829 1
-0.2000 -0.3278 -1.9237 0.3793 3
-0.2000 -0.2059 -1.2069 -0.0642 1
-0.2000 -0.2699 -1.5809 0.3703 2
-0.2000 -0.3285 -1.9239 -0.0341 2
-0.2000 -0.2838 -1.6605 0.4514 1
-0.2000 -0.3312 -1.9193 0.0340 5
-0.2000 -0.1257 -0.7278 -0.1705 8
-0.2000 -0.3274 -1.8933 0.1007 5
-0.2000 -0.1639 -0.9479 -0.1870 3
-0.2000 -0.3272 -1.8906 0.1679 1
-0.2000 -0.2027 -1.1698 -0.1880 1
-0.2000 -0.3308 -1.9070 0.2376 2
-0.2000 -0.3325 -1.9131 0.3076 3
-0.2000 -0.3342 -1.9207 0.3789 2
-0.2000 -0.2094 -1.2022 -0.0640 1
-0.2000 -0.3250 -1.8641 0.4369 2
-0.2000 -0.3280 -1.8793 -0.0333 3
-0.2000 -0.3288 -1.8821 0.5119 2
-0.2000 -0.3351 -1.9024 0.0337 2
-0.2000 -0.1283 -0.7274 -0.1705 8
-0.2000 -0.3347 -1.8960 0.1009 3
-0.2000 -0.1747 -0.9899 -0.1954 2
-0.2000 -0.3373 -1.9090 0.1696 3
-0.2000 -0.2006 -1.1340 -0.1824 1
-0.2000 -0.3329 -1.8804 0.2345 2
-0.2000 -0.3399 -1.9158 0.3082 2
-0.2000 -0.3553 -2.0030 -0.1780 1
-0.2000 -0.3028 -1.7049 0.3366 1
-0.2000 -0.2122 -1.1936 -0.0635 3
-0.2000 -0.3380 -1.8994 0.4454 2
-0.2000 -0.3367 -1.8900 -0.0335 4
-0.2000 -0.3367 -1.8885 0.5140 2
-0.2000 -0.2972 -1.6532 0.0293 2
-0.2000 -0.1308 -0.7269 -0.1705 8
-0.2000 -0.3438 -1.9086 0.1016 1
-0.2000 -0.1747 -0.9699 -0.1916 2
-0.2000 -0.3464 -1.9216 0.1708 3
-0.2000 -0.2045 -1.1333 -0.1824 1
-0.2000 -0.3398 -1.8812 0.2347 2
-0.2000 -0.2766 -1.5295 -0.1908 1
-0.2000 -0.3448 -1.9049 0.3066 2
-0.2000 -0.3637 -2.0095 -0.1787 1
-0.2000 -0.3220 -1.7773 0.3511 2
-0.2000 -0.2156 -1.1889 -0.0633 1
-0.2000 -0.3432 -1.8906 0.4436 2
-0.2000 -0.3490 -1.9203 -0.0341 2
-0.2000 -0.3350 -1.8417 0.5016 1
-0.2000 -0.3098 -1.6896 0.0300 3
-0.2000 -0.1333 -0.7264 -0.1705 8
-0.2000 -0.2905 -1.5813 0.0843 1
-0.2000 -0.1781 -0.9693 -0.1916 2
-0.2000 -0.3539 -1.9243 0.1712 3
-0.2000 -0.2078 -1.1287 -0.1818 1
-0.2000 -0.3450 -1.8722 0.2337 2
-0.2000 -0.2747 -1.4895 -0.1860 1
-0.2000 -0.3461 -1.8746 0.3019 1
-0.2000 -0.3744 -2.0279 -0.1804 1
-0.2000 -0.3457 -1.8707 0.3698 2
-0.2000 -0.2205 -1.1921 -0.0635 3
-0.2000 -0.3484 -1.8817 0.4418 1
-0.2000 -0.3600 -1.9426 -0.0345 2
-0.2000 -0.2964 -1.5974 0.4353 3
-0.2000 -0.3598 -1.9244 0.0342 1
-0.2000 -0.1359 -0.7260 -0.1705 8
-0.2000 -0.2969 -1.5862 0.0846 3
-0.2000 -0.1865 -0.9957 -0.1969 2
-0.2000 -0.3613 -1.9269 0.1715 3
-0.2000 -0.2081 -1.1086 -0.1786 1
-0.2000 -0.3486 -1.8554 0.2318 2
-0.2000 -0.2760 -1.4691 -0.1835 1
-0.2000 -0.3490 -1.8559 0.2991 2
-0.2000 -0.3599 -1.9100 0.3778 1
-0.2000 -0.2373 -1.2581 -0.0671 3
-0.2000 -0.3312 -1.7560 0.4126 1
-0.2000 -0.3672 -1.9453 -0.0346 2
-0.2000 -0.3555 -1.8812 0.5130 3
-0.2000 -0.3688 -1.9369 0.0344 1
-0.2000 -0.1383 -0.7255 -0.1705 8
-0.2000 -0.3208 -1.6834 0.0898 3
-0.2000 -0.1847 -0.9681 -0.1916 2
-0.2000 -0.3580 -1.8748 0.1670 2
-0.2000 -0.2117 -1.1079 -0.1786 1
-0.2000 -0.3566 -1.8639 0.2330 4
-0.2000 -0.2794 -1.4604 -0.1826 1
-0.2000 -0.3548 -1.8528 0.2988 2
-0.2000 -0.3189 -1.6620 0.3290 1
-0.2000 -0.3676 -1.9143 -0.1022 2
-0.2000 -0.3473 -1.8085 0.4252 2
-0.2000 -0.3691 -1.9205 -0.0341 3
-0.2000 -0.3668 -1.9065 0.5202 2
-0.2000 -0.3661 -1.8886 0.0336 1
-0.2000 -0.1407 -0.7251 -0.1705 8
-0.2000 -0.3712 -1.9116 0.1021 3
-0.2000 -0.1918 -0.9867 -0.1954 2
-0.2000 -0.3577 -1.8404 0.1640 2
-0.2000 -0.2207 -1.1343 -0.1830 1
-0.2000 -0.3548 -1.8218 0.2279 12
-0.2000 -0.2837 -1.4555 -0.1821 2
-0.2000 -0.3563 -1.8264 0.2947 1
-0.2000 -0.3604 -1.8439 0.3652 2
-0.2000 -0.3739 -1.9111 -0.1021 1
-0.2000 -0.3124 -1.5969 0.3757 2
-0.2000 -0.3774 -1.9271 -0.0343 2
-0.2000 -0.3601 -1.8370 0.5016 2
-0.2000 -0.3807 -1.9264 0.0343 2
-0.2000 -0.1532 -0.7742 -0.1822 7
-0.2000 -0.3744 -1.8906 0.1010 8
-0.2000 -0.1954 -0.9860 -0.1954 2
-0.2000 -0.3567 -1.8000 0.1605 2
-0.2000 -0.2133 -1.0754 -0.1736 1
-0.2000 -0.3626 -1.8264 0.2286 1
-0.2000 -0.2929 -1.4739 -0.1845 2
-0.2000 -0.3337 -1.6778 0.2709 1
-0.2000 -0.3645 -1.8291 0.3625 2
-0.2000 -0.3707 -1.8588 -0.0993 1
-0.2000 -0.3499 -1.7544 0.4130 2
-0.2000 -0.3805 -1.9061 -0.0339 2
-0.2000 -0.3490 -1.7466 0.4773 1
-0.2000 -0.3878 -1.9250 0.0343 3
-0.2000 -0.1460 -0.7240 -0.1705 8
-0.2000 -0.3837 -1.9030 0.1017 9
-0.2000 -0.2027 -1.0046 -0.1992 2
-0.2000 -0.3199 -1.5838 0.1414 4
-0.2000 -0.2235 -1.1056 -0.1786 1
-0.2000 -0.3634 -1.7958 0.2250 2
-0.2000 -0.2949 -1.4573 -0.1826 1
-0.2000 -0.3200 -1.5798 0.2553 1
-0.2000 -0.3915 -1.9312 -0.1724 1
-0.2000 -0.3701 -1.8240 0.3618 3
-0.2000 -0.3888 -1.9142 -0.1024 2
-0.2000 -0.3685 -1.8143 0.4274 2
-0.2000 -0.3892 -1.9145 -0.0341 1
-0.2000 -0.3563 -1.7511 0.4788 1
-0.2000 -0.3878 -1.8924 0.0337 15
-0.2000 -0.1586 -0.7731 -0.1822 7
-0.2000 -0.3960 -1.9311 0.1033 7
-0.2000 -0.2021 -0.9847 -0.1954 2
-0.2000 -0.3360 -1.6355 0.1461 4
-0.2000 -0.2256 -1.0971 -0.1774 1
-0.2000 -0.3566 -1.7324 0.2172 2
-0.2000 -0.3005 -1.4602 -0.1830 2
-0.2000 -0.3683 -1.7877 0.2891 1
-0.2000 -0.4104 -1.9904 -0.1778 2
-0.2000 -0.3777 -1.8304 0.3633 2
-0.2000 -0.3971 -1.9227 -0.1029 3
-0.2000 -0.3705 -1.7940 0.4229 2
-0.2000 -0.3927 -1.8995 -0.0339 1
-0.2000 -0.3722 -1.7991 0.4923 2
-0.2000 -0.4055 -1.9459 0.0347 2
-0.2000 -0.1587 -0.7612 -0.1795 7
-0.2000 -0.4024 -1.9278 0.1032 4
-0.2000 -0.2094 -1.0032 -0.1992 2
-0.2000 -0.4030 -1.9288 0.1724 4
-0.2000 -0.2333 -1.1157 -0.1805 2
-0.2000 -0.3237 -1.5466 0.1940 3
-0.2000 -0.3056 -1.4591 -0.1830 2
-0.2000 -0.3725 -1.7767 0.2875 2
-0.2000 -0.4174 -1.9910 -0.1780 2
-0.2000 -0.3806 -1.8138 0.3602 2
-0.2000 -0.4060 -1.9331 -0.1035 2
-0.2000 -0.3748 -1.7831 0.4207 2
-0.2000 -0.3927 -1.8668 -0.0333 3
-0.2000 -0.3785 -1.7978 0.4923 2
-0.2000 -0.4139 -1.9523 0.0348 2
-0.2000 -0.1533 -0.7225 -0.1705 8
-0.2000 -0.4116 -1.9381 0.1038 4
-0.2000 -0.2072 -0.9756 -0.1939 2
-0.2000 -0.4047 -1.9040 0.1703 10
-0.2000 -0.2388 -1.1226 -0.1818 2
-0.2000 -0.3365 -1.5804 0.1984 3
-0.2000 -0.3124 -1.4658 -0.1840 2
-0.2000 -0.3803 -1.7832 0.2888 2
-0.2000 -0.4268 -2.0012 -0.1790 1
-0.2000 -0.3853 -1.8048 0.3587 3
-0.2000 -0.4173 -1.9532 -0.1047 2
-0.2000 -0.3786 -1.7704 0.4180 2
-0.2000 -0.4034 -1.8850 -0.0336 11
-0.2000 -0.3799 -1.7738 0.4861 2
-0.2000 -0.1758 -0.8158 -0.2236 5
-0.2000 -0.4165 -1.9313 0.0345 1
-0.2000 -0.1706 -0.7905 -0.1867 6
-0.2000 -0.4218 -1.9543 0.1048 8
-0.2000 -0.2056 -0.9518 -0.1893 2
-0.2000 -0.4244 -1.9630 0.1757 3
-0.2000 -0.2369 -1.0947 -0.1774 2
-0.2000 -0.3685 -1.7015 0.2138 1
-0.2000 -0.3209 -1.4803 -0.1860 2
-0.2000 -0.3745 -1.7278 0.2800 2
-0.2000 -0.4009 -1.8478 -0.1654 1
-0.2000 -0.3857 -1.7766 0.3534 3
-0.2000 -0.4186 -1.9263 -0.1033 1
-0.2000 -0.3818 -1.7557 0.4148 2
-0.2000 -0.4101 -1.8856 -0.0337 7
-0.2000 -0.3850 -1.7687 0.4850 2
-0.2000 -0.4169 -1.9026 0.0340 1
-0.2000 -0.1732 -0.7900 -0.1867 6
-0.2000 -0.4278 -1.9489 0.1046 7
-0.2000 -0.2275 -1.0355 -0.2061 2
-0.2000 -0.4287 -1.9498 0.1747 2
-0.2000 -0.2405 -1.0939 -0.1774 2
-0.2000 -0.3515 -1.5975 0.2008 1
-0.2000 -0.3215 -1.4598 -0.1835 2
-0.2000 -0.3457 -1.5683 0.2544 2
-0.2000 -0.3908 -1.7715 0.3526 3
-0.2000 -0.4241 -1.9210 -0.1031 1
-0.2000 -0.3860 -1.7468 0.4130 2
-0.2000 -0.4132 -1.8686 -0.0334 1
-0.2000 -0.3895 -1.7598 0.4830 2
-0.2000 -0.4340 -1.9479 0.0348 4
-0.2000 -0.1607 -0.7209 -0.1705 8
-0.2000 -0.4302 -1.9279 0.1035 13
-0.2000 -0.2309 -1.0347 -0.2061 2
-0.2000 -0.4304 -1.9270 0.1727 1
-0.2000 -0.2478 -1.1085 -0.1799 2
-0.2000 -0.3827 -1.7106 0.2152 2
-0.2000 -0.3257 -1.4548 -0.1830 2
-0.2000 -0.3386 -1.5112 0.2453 3
-0.2000 -0.3909 -1.7433 0.3473 3
-0.2000 -0.4308 -1.9195 -0.1031 1
-0.2000 -0.3869 -1.7226 0.4076 2
-0.2000 -0.4211 -1.8730 -0.0335 2
-0.2000 -0.3931 -1.7472 0.4799 2
-0.2000 -0.4412 -1.9484 0.0349 9
-0.2000 -0.1788 -0.7887 -0.1867 6
-0.2000 -0.2347 -1.0339 -0.2061 2
-0.2000 -0.4410 -1.9409 0.1741 5
-0.2000 -0.2527 -1.1114 -0.1805 2
-0.2000 -0.3891 -1.7111 0.2155 2
-0.2000 -0.3317 -1.4575 -0.1835 1
-0.2000 -0.3672 -1.6121 0.2619 3
-0.2000 -0.3965 -1.7380 0.3465 3
-0.2000 -0.4379 -1.9180 -0.1031 1
-0.2000 -0.3924 -1.7174 0.4067 2
-0.2000 -0.4312 -1.8871 -0.0338 4
-0.2000 -0.3975 -1.7382 0.4778 2
-0.2000 -0.1825 -0.7919 -0.1876 6
-0.2000 -0.4382 -1.8994 0.1022 17
-0.2000 -0.2445 -1.0598 -0.2114 2
-0.2000 -0.4437 -1.9219 0.1726 7
-0.2000 -0.2610 -1.1298 -0.1837 2
-0.2000 -0.4007 -1.7329 0.2184 3
-0.2000 -0.2788 -1.2049 -0.1518 1
-0.2000 -0.3998 -1.7262 0.2806 2
-0.2000 -0.3981 -1.7175 0.3427 2
-0.2000 -0.4446 -1.9164 -0.1031 1
-0.2000 -0.3953 -1.7027 0.4036 2
-0.2000 -0.4399 -1.8933 -0.0339 4
-0.2000 -0.3986 -1.7142 0.4716 2
-0.2000 -0.4410 -1.8848 0.0338 32
-0.2000 -0.1800 -0.7685 -0.1822 7
-0.2000 -0.4439 -1.8940 0.1020 25
-0.2000 -0.2421 -1.0321 -0.2061 2
-0.2000 -0.4535 -1.9319 0.1736 5
-0.2000 -0.2589 -1.1019 -0.1793 2
-0.2000 -0.4018 -1.7102 0.2157 2
-0.2000 -0.2603 -1.1073 -0.1397 1
-0.2000 -0.4040 -1.7171 0.2794 2
-0.2000 -0.4498 -1.9103 -0.1717 1
-0.2000 -0.3517 -1.4924 0.2980 2
-0.2000 -0.4461 -1.8914 -0.1018 1
-0.2000 -0.3984 -1.6880 0.4004 2
-0.2000 -0.4424 -1.8742 -0.0336 1
-0.2000 -0.4028 -1.7053 0.4695 2
-0.2000 -0.1708 -0.7186 -0.1705 8
-0.2000 -0.4511 -1.8964 0.1022 4
-0.2000 -0.2362 -0.9932 -0.1984 2
-0.2000 -0.4545 -1.9092 0.1717 2
-0.2000 -0.2577 -1.0819 -0.1761 2
-0.2000 -0.4028 -1.6896 0.2133 2
-0.2000 -0.2907 -1.2184 -0.1538 1
-0.2000 -0.4079 -1.7081 0.2781 3
-0.2000 -0.2550 -1.0678 -0.0960 1
-0.2000 -0.3514 -1.4703 0.2938 4
-0.2000 -0.4576 -1.9133 -0.1031 1
-0.2000 -0.3801 -1.5882 0.3770 2
-0.2000 -0.4402 -1.8377 -0.0330 1
-0.2000 -0.4066 -1.6964 0.4674 3
-0.2000 -0.4820 -1.9984 0.0359 1
-0.2000 -0.1852 -0.7672 -0.1822 7
-0.2000 -0.4544 -1.8812 0.1014 1
-0.2000 -0.2379 -0.9847 -0.1969 2
-0.2000 -0.2680 -1.1078 -0.1805 2
-0.2000 -0.4087 -1.6882 0.2133 2
-0.2000 -0.3539 -1.4605 -0.1845 1
-0.2000 -0.4110 -1.6951 0.2763 2
-0.2000 -0.3917 -1.6141 0.3228 3
-0.2000 -0.4643 -1.9117 -0.1031 1
-0.2000 -0.3447 -1.4183 0.3370 4
-0.2000 -0.4579 -1.8828 -0.0338 1
-0.2000 -0.4126 -1.6950 0.4674 2
-0.2000 -0.1758 -0.7173 -0.1705 8
-0.2000 -0.4553 -1.8564 0.1002 1
-0.2000 -0.2469 -1.0068 -0.2015 2
-0.2000 -0.4260 -1.7357 0.1564 1
-0.2000 -0.2719 -1.1069 -0.1805 2
-0.2000 -0.4122 -1.6771 0.2121 2
-0.2000 -0.3599 -1.4631 -0.1850 1
-0.2000 -0.4132 -1.6783 0.2738 2
-0.2000 -0.4152 -1.6851 0.3374 3
-0.2000 -0.4709 -1.9101 -0.1031 1
-0.2000 -0.3576 -1.4493 0.3446 4
-0.2000 -0.4568 -1.8501 -0.0333 1
-0.2000 -0.4083 -1.6523 0.4560 2
-0.2000 -0.1783 -0.7167 -0.1705 8
-0.2000 -0.4675 -1.8780 0.1014 1
-0.2000 -0.2430 -0.9754 -0.1954 2
-0.2000 -0.4526 -1.8153 0.1637 2
-0.2000 -0.2788 -1.1174 -0.1824 2
-0.2000 -0.4171 -1.6718 0.2116 2
-0.2000 -0.3660 -1.4657 -0.1855 2
-0.2000 -0.4181 -1.6731 0.2731 2
-0.2000 -0.2615 -1.0457 -0.0943 1
-0.2000 -0.4194 -1.6760 0.3358 3
-0.2000 -0.4527 -1.8076 -0.0977 1
-0.2000 -0.4060 -1.6200 0.3856 2
-0.2000 -0.4575 -1.8253 -0.0328 1
-0.2000 -0.3652 -1.4560 0.4022 2
-0.2000 -0.1933 -0.7652 -0.1822 7
-0.2000 -0.4793 -1.8957 0.1025 1
-0.2000 -0.2445 -0.9669 -0.1939 2
-0.2000 -0.4614 -1.8233 0.1646 2
-0.2000 -0.2817 -1.1126 -0.1818 1
-0.2000 -0.4223 -1.6664 0.2111 2
-0.2000 -0.3665 -1.4451 -0.1830 2
-0.2000 -0.4223 -1.6639 0.2719 2
-0.2000 -0.2671 -1.0525 -0.0950 1
-0.2000 -0.4224 -1.6631 0.3335 3
-0.2000 -0.4605 -1.8118 -0.0980 1
-0.2000 -0.4193 -1.6488 0.3928 2
-0.2000 -0.4607 -1.8100 -0.0326 1
-0.2000 -0.3533 -1.3872 0.3836 4
-0.2000 -0.4893 -1.9100 0.0344 1
-0.2000 -0.1960 -0.7645 -0.1822 7
-0.2000 -0.4879 -1.9017 0.1029 1
-0.2000 -0.2596 -1.0117 -0.2030 2
-0.2000 -0.4697 -1.8294 0.1652 2
-0.2000 -0.2856 -1.1116 -0.1818 1
-0.2000 -0.4241 -1.6496 0.2091 2
-0.2000 -0.3794 -1.4745 -0.1869 1
-0.2000 -0.4261 -1.6547 0.2706 2
-0.2000 -0.2738 -1.0631 -0.0960 1
-0.2000 -0.4233 -1.6426 0.3297 3
-0.2000 -0.4683 -1.8160 -0.0983 1
-0.2000 -0.4207 -1.6303 0.3887 2
-0.2000 -0.4685 -1.8142 -0.0327 1
-0.2000 -0.3727 -1.4421 0.3991 3
-0.2000 -0.4950 -1.9044 0.0343 1
-0.2000 -0.1957 -0.7525 -0.1795 7
-0.2000 -0.2582 -0.9918 -0.1992 2
-0.2000 -0.4771 -1.8317 0.1656 2
-0.2000 -0.2865 -1.0991 -0.1799 2
-0.2000 -0.4379 -1.6788 0.2130 2
-0.2000 -0.3806 -1.4578 -0.1850 1
-0.2000 -0.4289 -1.6418 0.2688 2
-0.2000 -0.4320 -1.6525 0.3320 3
-0.2000 -0.4979 -1.9033 -0.1031 1
-0.2000 -0.4269 -1.6307 0.3892 2
-0.2000 -0.4789 -1.8280 -0.0330 1
-0.2000 -0.4238 -1.6164 0.4478 3
-0.2000 -0.5016 -1.9027 0.0343 1
-0.2000 -0.2133 -0.8083 -0.1930 6
-0.2000 -0.2706 -1.0250 -0.2061 2
-0.2000 -0.4764 -1.8030 0.1632 2
-0.2000 -0.2913 -1.1019 -0.1805 2
-0.2000 -0.4489 -1.6964 0.2155 2
-0.2000 -0.3856 -1.4565 -0.1850 1
-0.2000 -0.4295 -1.6212 0.2656 2
-0.2000 -0.4843 -1.8277 -0.1654 1
-0.2000 -0.4347 -1.6396 0.3297 3
-0.2000 -0.4851 -1.8281 -0.0991 1
-0.2000 -0.4296 -1.6179 0.3865 2
-0.2000 -0.4791 -1.8032 -0.0326 1
-0.2000 -0.4324 -1.6261 0.4509 2
-0.2000 -0.5103 -1.9086 0.0345 1
-0.2000 -0.2010 -0.7511 -0.1795 7
-0.2000 -0.4915 -1.8368 0.0996 1
-0.2000 -0.2691 -1.0051 -0.2023 2
-0.2000 -0.4811 -1.7956 0.1626 1
-0.2000 -0.2972 -1.1085 -0.1818 1
-0.2000 -0.4429 -1.6508 0.2099 1
-0.2000 -0.3887 -1.4475 -0.1840 1
-0.2000 -0.4329 -1.6121 0.2644 2
-0.2000 -0.4906 -1.8260 -0.1654 1
-0.2000 -0.4374 -1.6267 0.3274 3
-0.2000 -0.4977 -1.8496 -0.1004 1
-0.2000 -0.4337 -1.6108 0.3851 2
-0.2000 -0.4778 -1.7745 -0.0321 1
-0.2000 -0.4327 -1.6060 0.4457 3
-0.2000 -0.4853 -1.7911 0.0324 1
-0.2000 -0.2065 -0.7617 -0.1822 7
-0.2000 -0.4906 -1.8081 0.0982 1
-0.2000 -0.2680 -0.9871 -0.1988 2
-0.2000 -0.4874 -1.7939 0.1626 1
-0.2000 -0.3019 -1.1114 -0.1824 1
-0.2000 -0.4625 -1.7010 0.2164 1
-0.2000 -0.4421 -1.6239 0.2666 2
-0.2000 -0.4771 -1.7512 -0.1588 1
-0.2000 -0.4376 -1.6063 0.3236 3
-0.2000 -0.4880 -1.7901 -0.0972 1
-0.2000 -0.4370 -1.6018 0.3833 2
-0.2000 -0.4977 -1.8230 -0.0330 1
-0.2000 -0.4343 -1.5896 0.4415 2
-0.2000 -0.4831 -1.7586 0.0318 1
-0.2000 -0.2154 -0.7836 -0.1876 6
-0.2000 -0.4775 -1.7371 0.0944 1
-0.2000 -0.2723 -0.9900 -0.1996 2
-0.2000 -0.4870 -1.7692 0.1605 1
-0.2000 -0.3027 -1.0989 -0.1805 1
-0.2000 -0.4832 -1.7530 0.2233 1
-0.2000 -0.4338 -1.5729 0.2584 1
-0.2000 -0.4946 -1.7919 -0.1626 1
-0.2000 -0.4422 -1.6010 0.3228 3
-0.2000 -0.4426 -1.6003 0.3833 2
-0.2000 -0.4931 -1.7828 -0.0323 1
-0.2000 -0.4406 -1.5919 0.4426 3
-0.2000 -0.4975 -1.7878 0.0324 1
-0.2000 -0.2117 -0.7603 -0.1822 7
-0.2000 -0.2895 -1.0382 -0.2095 2
-0.2000 -0.5167 -1.8519 0.1682 1
-0.2000 -0.3053 -1.0941 -0.1799 1
-0.2000 -0.4772 -1.7093 0.2179 1
-0.2000 -0.3862 -1.3823 -0.1762 1
-0.2000 -0.3947 -1.4116 0.2321 1
-0.2000 -0.5019 -1.7940 -0.1630 1
-0.2000 -0.4464 -1.5957 0.3221 2
-0.2000 -0.4405 -1.5725 0.3770 2
-0.2000 -0.5101 -1.8196 -0.0330 1
-0.2000 -0.4420 -1.5755 0.4384 2
-0.2000 -0.2144 -0.7596 -0.1822 7
-0.2000 -0.3517 -1.2455 0.0678 1
-0.2000 -0.3080 -1.0892 -0.1793 2
-0.2000 -0.3762 -1.3294 0.1696 1
-0.2000 -0.4246 -1.4993 -0.1913 1
-0.2000 -0.3727 -1.3152 0.2165 1
-0.2000 -0.5082 -1.7922 -0.1630 1
-0.2000 -0.4456 -1.5715 0.3175 2
-0.2000 -0.4460 -1.5710 0.3770 2
-0.2000 -0.4453 -1.5665 0.4364 3
-0.2000 -0.3572 -1.2481 0.0680 1
-0.2000 -0.3666 -1.2794 0.1164 1
-0.2000 -0.3131 -1.0918 -0.1799 1
-0.2000 -0.3628 -1.2651 0.1616 2
-0.2000 -0.4177 -1.4559 -0.1860 1
-0.2000 -0.4432 -1.5436 0.2544 1
-0.2000 -0.5089 -1.7713 -0.1612 1
-0.2000 -0.3857 -1.3415 0.2713 2
-0.2000 -0.5163 -1.7946 -0.0979 1
-0.2000 -0.4448 -1.5450 0.3712 2
-0.2000 -0.4487 -1.5575 0.4343 3
-0.2000 -0.5198 -1.7916 0.0978 1
-0.2000 -0.3805 -1.3107 0.1194 1
-0.2000 -0.3191 -1.0983 -0.1812 1
-0.2000 -0.3779 -1.3000 0.1662 1
-0.2000 -0.4231 -1.4543 -0.1860 1
-0.2000 -0.5339 -1.8341 0.3025 3
-0.2000 -0.5173 -1.7772 -0.1619 1
-0.2000 -0.3684 -1.2648 0.2561 3
-0.2000 -0.5248 -1.8005 -0.0983 1
-0.2000 -0.4529 -1.5528 0.3734 3
-0.2000 -0.5070 -1.7372 -0.0316 1
-0.2000 -0.4511 -1.5447 0.4312 3
-0.2000 -0.5278 -1.7978 0.0327 3
-0.2000 -0.5193 -1.7667 0.0965 2
-0.2000 -0.3062 -1.0416 -0.2110 2
-0.2000 -0.5290 -1.7987 0.1640 1
-0.2000 -0.3296 -1.1199 -0.1849 1
-0.2000 -0.5339 -1.8128 0.2320 1
-0.2000 -0.4304 -1.4605 -0.1869 1
-0.2000 -0.6559 -2.2244 0.3673 14
-0.2000 -0.5269 -1.7868 -0.1630 1
-0.2000 -0.3978 -1.3482 0.2732 3
-0.2000 -0.5237 -1.7738 -0.0969 4
-0.2000 -0.4572 -1.5474 0.3725 3
-0.2000 -0.5301 -1.7930 -0.0326 5
-0.2000 -0.4598 -1.5542 0.4343 3
-0.2000 -0.5289 -1.7787 0.0324 7
-0.2000 -0.5217 -1.7535 0.0959 5
-0.2000 -0.2807 -0.9427 -0.1912 2
-0.2000 -0.5279 -1.7720 0.1618 2
-0.2000 -0.5255 -1.7615 0.2257 1
-0.2000 -0.4321 -1.4475 -0.1855 1
-0.2000 -0.6769 -2.2676 0.3748 8
-0.2000 -0.5411 -1.8117 -0.1654 1
-0.2000 -0.4576 -1.5312 0.3106 3
-0.2000 -0.5305 -1.7738 -0.0970 3
-0.2000 -0.4581 -1.5309 0.3689 2
-0.2000 -0.5337 -1.7836 -0.0325 8
-0.2000 -0.4616 -1.5416 0.4312 3
-0.2000 -0.5354 -1.7789 0.0324 2
-0.2000 -0.5307 -1.7612 0.0964 2
-0.2000 -0.2930 -0.9718 -0.1973 2
-0.2000 -0.5358 -1.7758 0.1623 1
-0.2000 -0.5462 -1.8092 0.2320 1
-0.2000 -0.4357 -1.4423 -0.1850 1
-0.2000 -0.4716 -1.5600 0.2581 8
-0.2000 -0.5474 -1.8098 -0.1654 1
-0.2000 -0.4684 -1.5484 0.3145 3
-0.2000 -0.5456 -1.8026 -0.0987 1
-0.2000 -0.4587 -1.5144 0.3653 3
-0.2000 -0.5411 -1.7855 -0.0326 1
-0.2000 -0.4648 -1.5326 0.4291 3
-0.2000 -0.5643 -1.8516 0.0338 1
-0.2000 -0.5491 -1.7995 0.0986 1
-0.2000 -0.2894 -0.9483 -0.1927 2
-0.2000 -0.5394 -1.7664 0.1616 1
-0.2000 -0.5525 -1.8072 0.2320 1
-0.2000 -0.4489 -1.4673 -0.1884 1
-0.2000 -0.4712 -1.5394 0.2550 2
-0.2000 -0.5421 -1.7698 -0.1619 1
-0.2000 -0.4692 -1.5318 0.3114 3
-0.2000 -0.5648 -1.8427 -0.1010 1
-0.2000 -0.4617 -1.5054 0.3635 2
-0.2000 -0.5544 -1.8066 -0.0330 1
-0.2000 -0.4633 -1.5088 0.4229 2
-0.2000 -0.5437 -1.7617 0.0322 1
-0.2000 -0.2386 -0.7727 -0.1867 6
-0.2000 -0.5613 -1.8167 0.0996 1
-0.2000 -0.3021 -0.9772 -0.1988 2
-0.2000 -0.5682 -1.8368 0.1682 1
-0.2000 -0.3429 -1.1077 -0.1837 1
-0.2000 -0.5647 -1.8243 0.2345 1
-0.2000 -0.4540 -1.4658 -0.1884 1
-0.2000 -0.4766 -1.5378 0.2550 2
-0.2000 -0.5719 -1.8440 -0.1689 1
-0.2000 -0.4725 -1.5225 0.3099 3
-0.2000 -0.5538 -1.7834 -0.0979 1
-0.2000 -0.4660 -1.5000 0.3626 3
-0.2000 -0.5482 -1.7645 -0.0323 1
-0.2000 -0.4651 -1.4961 0.4198 2
-0.2000 -0.5716 -1.8284 0.0334 1
-0.2000 -0.2414 -0.7718 -0.1867 6
-0.2000 -0.5748 -1.8376 0.1009 1
-0.2000 -0.3161 -1.0099 -0.2057 2
-0.2000 -0.5746 -1.8348 0.1682 1
-0.2000 -0.3479 -1.1103 -0.1843 1
-0.2000 -0.5607 -1.7881 0.2301 1
-0.2000 -0.4618 -1.4717 -0.1894 1
-0.2000 -0.4784 -1.5248 0.2531 2
-0.2000 -0.5664 -1.8040 -0.1654 1
-0.2000 -0.4719 -1.5022 0.3061 3
-0.2000 -0.5672 -1.8044 -0.0991 1
-0.2000 -0.4672 -1.4853 0.3595 2
-0.2000 -0.5664 -1.8007 -0.0330 1
-0.2000 -0.4738 -1.5055 0.4229 3
-0.2000 -0.2517 -0.7957 -0.2236 5
-0.2000 -0.5909 -1.8685 0.0342 2
-0.2000 -0.2228 -0.7042 -0.1705 8
-0.2000 -0.5740 -1.8127 0.0996 1
-0.2000 -0.3125 -0.9863 -0.2011 2
-0.2000 -0.5810 -1.8328 0.1682 1
-0.2000 -0.3409 -1.0752 -0.1786 1
-0.2000 -0.5750 -1.8127 0.2335 1
-0.2000 -0.4606 -1.4512 -0.1869 2
-0.2000 -0.4802 -1.5118 0.2512 3
-0.2000 -0.5727 -1.8020 -0.1654 1
-0.2000 -0.4757 -1.4968 0.3053 3
-0.2000 -0.5780 -1.8177 -0.1000 1
-0.2000 -0.4526 -1.4225 0.3446 2
-0.2000 -0.4791 -1.5039 0.4229 2
-0.2000 -0.5938 -1.8550 0.0340 1
-0.2000 -0.2407 -0.7516 -0.1822 7
-0.2000 -0.5983 -1.8678 0.1028 1
-0.2000 -0.3158 -0.9853 -0.2011 2
-0.2000 -0.5871 -1.8308 0.1682 1
-0.2000 -0.3507 -1.0928 -0.1818 2
-0.2000 -0.5777 -1.7993 0.2320 1
-0.2000 -0.4657 -1.4496 -0.1869 1
-0.2000 -0.4755 -1.4801 0.2462 2
-0.2000 -0.5786 -1.8001 -0.1654 1
-0.2000 -0.4797 -1.4914 0.3045 3
-0.2000 -0.6088 -1.8917 -0.1041 1
-0.2000 -0.4140 -1.2855 0.3118 2
-0.2000 -0.5786 -1.7968 -0.0330 1
-0.2000 -0.4781 -1.4839 0.4177 3
-0.2000 -0.6159 -1.9025 0.0349 1
-0.2000 -0.2432 -0.7508 -0.1822 7
-0.2000 -0.5801 -1.7897 0.0986 1
-0.2000 -0.3398 -1.0477 -0.2141 2
-0.2000 -0.5935 -1.8288 0.1682 1
-0.2000 -0.3531 -1.0879 -0.1812 2
-0.2000 -0.5959 -1.8352 0.2369 1
-0.2000 -0.4730 -1.4556 -0.1879 2
-0.2000 -0.4807 -1.4784 0.2462 3
-0.2000 -0.5948 -1.8283 -0.1682 1
-0.2000 -0.4871 -1.4973 0.3061 3
-0.2000 -0.6089 -1.8707 -0.1031 1
-0.2000 -0.4110 -1.2619 0.3064 2
-0.2000 -0.5849 -1.7948 -0.0330 1
-0.2000 -0.4785 -1.4675 0.4136 3
-0.2000 -0.6042 -1.8432 0.0339 1
-0.2000 -0.2521 -0.7684 -0.1867 6
-0.2000 -0.6054 -1.8445 0.1017 1
-0.2000 -0.3300 -1.0054 -0.2057 2
-0.2000 -0.5999 -1.8267 0.1682 1
-0.2000 -0.3583 -1.0903 -0.1818 2
-0.2000 -0.5989 -1.8217 0.2355 1
-0.2000 -0.4758 -1.4463 -0.1869 1
-0.2000 -0.4861 -1.4767 0.2462 3
-0.2000 -0.5912 -1.7960 -0.1654 1
-0.2000 -0.4840 -1.4694 0.3007 3
-0.2000 -0.6158 -1.8685 -0.1031 1
-0.2000 -0.4504 -1.3658 0.3320 2
-0.2000 -0.5915 -1.7927 -0.0330 1
-0.2000 -0.4827 -1.4621 0.4126 3
-0.2000 -0.6289 -1.8961 0.0349 2
-0.2000 -0.5992 -1.8045 0.0996 1
-0.2000 -0.3428 -1.0322 -0.2114 2
-0.2000 -0.6062 -1.8246 0.1682 1
-0.2000 -0.3621 -1.0891 -0.1818 1
-0.2000 -0.6053 -1.8196 0.2355 1
-0.2000 -0.4808 -1.4446 -0.1869 1
-0.2000 -0.4900 -1.4712 0.2456 3
-0.2000 -0.6088 -1.8279 -0.1686 1
-0.2000 -0.4854 -1.4565 0.2984 3
-0.2000 -0.6223 -1.8663 -0.1031 1
-0.2000 -0.4798 -1.4382 0.3500 3
-0.2000 -0.4841 -1.4494 0.4095 3
-0.2000 -0.2654 -0.7912 -0.2236 5
-0.2000 -0.6540 -1.9489 0.0359 1
-0.2000 -0.6208 -1.8478 0.1022 1
-0.2000 -0.3376 -1.0050 -0.2061 2
-0.2000 -0.6126 -1.8224 0.1682 1
-0.2000 -0.3659 -1.0878 -0.1818 2
-0.2000 -0.6218 -1.8475 0.2394 1
-0.2000 -0.4897 -1.4542 -0.1884 1
-0.2000 -0.4939 -1.4658 0.2450 3
-0.2000 -0.6126 -1.8182 -0.1679 1
-0.2000 -0.4917 -1.4585 0.2992 3
-0.2000 -0.6288 -1.8641 -0.1031 1
-0.2000 -0.4873 -1.4439 0.3518 3
-0.2000 -0.6040 -1.7885 -0.0330 1
-0.2000 -0.4916 -1.4550 0.4115 3
-0.2000 -0.6518 -1.9201 0.0354 1
-0.2000 -0.6054 -1.7814 0.0986 1
-0.2000 -0.6190 -1.8203 0.1682 1
-0.2000 -0.3646 -1.0716 -0.1793 2
-0.2000 -0.6231 -1.8303 0.2374 1
-0.2000 -0.4948 -1.4525 -0.1884 1
-0.2000 -0.4900 -1.4379 0.2406 3
-0.2000 -0.6202 -1.8199 -0.1682 1
-0.2000 -0.4943 -1.4494 0.2977 3
