-0.0800 -0.4480 -1.6513 0.3950 3
-0.0800 -0.4684 -1.7253 -0.0312 1
-0.0800 -0.4533 -1.6685 0.4633 3
-0.0800 -0.2025 -0.7417 -0.2060 6
-0.0800 -0.3900 -1.4275 0.0258 1
-0.0800 -0.2415 -0.8835 -0.2115 4
-0.0800 -0.2839 -1.0377 -0.2091 2
-0.0800 -0.4977 -1.8179 0.1649 2
-0.0800 -0.3079 -1.1241 -0.1846 1
-0.0800 -0.4534 -1.6541 0.2106 3
-0.0800 -0.4052 -1.4780 -0.1882 1
-0.0800 -0.4583 -1.6707 0.2744 3
-0.0800 -0.4884 -1.7791 -0.1614 1
-0.0800 -0.4555 -1.6584 0.3343 3
-0.0800 -0.4981 -1.8122 -0.0985 1
-0.0800 -0.4483 -1.6310 0.3905 3
-0.0800 -0.4964 -1.8047 -0.0327 1
-0.0800 -0.4548 -1.6521 0.4591 3
-0.0800 -0.2050 -0.7411 -0.2060 6
-0.0800 -0.3883 -1.4030 0.0254 3
-0.0800 -0.2611 -0.9428 -0.2259 2
-0.0800 -0.3873 -1.3973 0.0760 1
-0.0800 -0.2800 -1.0103 -0.2038 2
-0.0800 -0.5016 -1.8086 0.1642 2
-0.0800 -0.3085 -1.1116 -0.1827 2
-0.0800 -0.4552 -1.6392 0.2089 3
-0.0800 -0.4124 -1.4842 -0.1891 1
-0.0800 -0.4610 -1.6577 0.2725 3
-0.0800 -0.4847 -1.7430 -0.1583 1
-0.0800 -0.4537 -1.6304 0.3290 3
-0.0800 -0.5106 -1.8336 -0.0998 1
-0.0800 -0.4540 -1.6294 0.3905 3
-0.0800 -0.4877 -1.7490 -0.0317 1
-0.0800 -0.4543 -1.6282 0.4529 3
-0.0800 -0.3986 -1.4209 0.0258 2
-0.0800 -0.2412 -0.8593 -0.2061 4
-0.0800 -0.4191 -1.4921 0.0812 1
-0.0800 -0.2803 -0.9980 -0.2015 2
-0.0800 -0.5030 -1.7895 0.1626 1
-0.0800 -0.3070 -1.0915 -0.1796 1
-0.0800 -0.4555 -1.6185 0.2064 3
-0.0800 -0.4208 -1.4942 -0.1906 2
-0.0800 -0.4657 -1.6522 0.2719 3
-0.0800 -0.5016 -1.7796 -0.1618 1
-0.0800 -0.4615 -1.6363 0.3305 3
-0.0800 -0.5170 -1.8318 -0.0998 1
-0.0800 -0.4544 -1.6091 0.3860 3
-0.0800 -0.5068 -1.7935 -0.0325 1
-0.0800 -0.4600 -1.6266 0.4529 3
-0.0800 -0.2101 -0.7396 -0.2060 6
-0.0800 -0.2677 -0.9409 -0.2259 2
-0.0800 -0.4057 -1.4253 0.0777 1
-0.0800 -0.2795 -0.9819 -0.1984 2
-0.0800 -0.5093 -1.7878 0.1626 1
-0.0800 -0.3141 -1.1018 -0.1815 2
-0.0800 -0.4606 -1.6150 0.2062 2
-0.0800 -0.4195 -1.4698 -0.1877 1
-0.0800 -0.4649 -1.6278 0.2681 3
-0.0800 -0.4968 -1.7395 -0.1583 1
-0.0800 -0.4618 -1.6158 0.3267 3
-0.0800 -0.5234 -1.8300 -0.0998 1
-0.0800 -0.4557 -1.5925 0.3824 3
-0.0800 -0.5076 -1.7725 -0.0322 1
-0.0800 -0.4635 -1.6175 0.4509 3
-0.0800 -0.2440 -0.8464 -0.2034 5
-0.0800 -0.3947 -1.3683 0.0746 3
-0.0800 -0.2829 -0.9809 -0.1984 2
-0.0800 -0.4006 -1.3878 0.1264 1
-0.0800 -0.3179 -1.1007 -0.1815 2
-0.0800 -0.4602 -1.5924 0.2035 2
-0.0800 -0.4258 -1.4722 -0.1882 1
-0.0800 -0.4673 -1.6148 0.2663 3
-0.0800 -0.5084 -1.7569 -0.1600 1
-0.0800 -0.4674 -1.6142 0.3267 3
-0.0800 -0.5153 -1.7783 -0.0970 1
-0.0800 -0.4613 -1.5909 0.3824 3
-0.0800 -0.5149 -1.7745 -0.0323 1
-0.0800 -0.4681 -1.6122 0.4498 3
-0.0800 -0.2153 -0.7381 -0.2060 6
-0.0800 -0.4482 -1.5357 0.0279 1
-0.0800 -0.2393 -0.8193 -0.1971 5
-0.0800 -0.3983 -1.3630 0.0744 3
-0.0800 -0.2886 -0.9874 -0.2000 2
-0.0800 -0.3909 -1.3367 0.1218 4
-0.0800 -0.3240 -1.1072 -0.1827 2
-0.0800 -0.4513 -1.5412 0.1972 2
-0.0800 -0.4320 -1.4745 -0.1887 2
-0.0800 -0.4696 -1.6018 0.2644 3
-0.0800 -0.5093 -1.7359 -0.1583 1
-0.0800 -0.4681 -1.5956 0.3232 3
-0.0800 -0.5361 -1.8263 -0.0998 1
-0.0800 -0.4625 -1.5743 0.3788 3
-0.0800 -0.5120 -1.7420 -0.0317 1
-0.0800 -0.4650 -1.5809 0.4415 3
-0.0800 -0.4536 -1.5341 0.0279 1
-0.0800 -0.2631 -0.8895 -0.2142 3
-0.0800 -0.5046 -1.7044 0.0932 1
-0.0800 -0.2866 -0.9676 -0.1962 2
-0.0800 -0.4054 -1.3677 0.1248 2
-0.0800 -0.3286 -1.1079 -0.1830 2
-0.0800 -0.4025 -1.3569 0.1738 3
-0.0800 -0.4428 -1.4920 -0.1911 2
-0.0800 -0.4741 -1.5963 0.2637 3
-0.0800 -0.5153 -1.7341 -0.1583 1
-0.0800 -0.4740 -1.5939 0.3232 3
-0.0800 -0.5428 -1.8243 -0.0998 1
-0.0800 -0.4682 -1.5726 0.3788 3
-0.0800 -0.5181 -1.7402 -0.0317 1
-0.0800 -0.4716 -1.5830 0.4426 3
-0.0800 -0.5522 -1.8428 0.0336 1
-0.0800 -0.2541 -0.8475 -0.2043 4
-0.0800 -0.5349 -1.7829 0.0976 1
-0.0800 -0.2945 -0.9816 -0.1992 2
-0.0800 -0.5230 -1.7422 0.1591 1
-0.0800 -0.3262 -1.0859 -0.1796 3
-0.0800 -0.3966 -1.3193 0.1692 6
-0.0800 -0.4460 -1.4828 -0.1901 1
-0.0800 -0.4765 -1.5832 0.2619 3
-0.0800 -0.5214 -1.7323 -0.1583 1
-0.0800 -0.4784 -1.5885 0.3225 3
-0.0800 -0.5492 -1.8224 -0.0998 1
-0.0800 -0.4737 -1.5710 0.3788 3
-0.0800 -0.4741 -1.5701 0.4395 3
-0.0800 -0.2231 -0.7358 -0.2060 6
-0.0800 -0.5621 -1.8523 0.0338 1
-0.0800 -0.2842 -0.9361 -0.2259 2
-0.0800 -0.5516 -1.8155 0.0994 1
-0.0800 -0.3128 -1.0294 -0.2091 2
-0.0800 -0.5407 -1.7785 0.1626 1
-0.0800 -0.3363 -1.1056 -0.1830 5
-0.0800 -0.4335 -1.4243 0.1828 2
-0.0800 -0.4465 -1.4660 -0.1882 2
-0.0800 -0.4671 -1.5324 0.2537 3
-0.0800 -0.5274 -1.7305 -0.1583 1
-0.0800 -0.4822 -1.5812 0.3213 3
-0.0800 -0.5555 -1.8205 -0.0998 1
-0.0800 -0.4769 -1.5619 0.3770 3
-0.0800 -0.4761 -1.5574 0.4364 3
-0.0800 -0.5615 -1.8274 0.0334 1
-0.0800 -0.2795 -0.9090 -0.2196 3
-0.0800 -0.5470 -1.7793 0.0976 1
-0.0800 -0.3163 -1.0283 -0.2091 2
-0.0800 -0.5528 -1.7957 0.1644 1
-0.0800 -0.3373 -1.0950 -0.1815 2
-0.0800 -0.4847 -1.5726 0.2021 1
-0.0800 -0.4540 -1.4720 -0.1891 1
-0.0800 -0.4162 -1.3497 0.2237 4
-0.0800 -0.5335 -1.7287 -0.1583 1
-0.0800 -0.4796 -1.5532 0.3160 3
-0.0800 -0.5619 -1.8186 -0.0998 1
-0.0800 -0.4743 -1.5341 0.3707 2
-0.0800 -0.5363 -1.7347 -0.0317 1
-0.0800 -0.4802 -1.5521 0.4353 3
-0.0800 -0.5569 -1.7912 0.0327 4
-0.0800 -0.2825 -0.9081 -0.2196 3
-0.0800 -0.5538 -1.7792 0.0977 4
-0.0800 -0.3036 -0.9747 -0.1984 2
-0.0800 -0.5567 -1.7861 0.1637 1
-0.0800 -0.3356 -1.0769 -0.1786 2
-0.0800 -0.5147 -1.6506 0.2123 1
-0.0800 -0.4600 -1.4743 -0.1896 2
-0.0800 -0.4086 -1.3086 0.2171 9
-0.0800 -0.4660 -1.4916 0.3038 3
-0.0800 -0.5578 -1.7843 -0.0980 2
-0.0800 -0.4491 -1.4358 0.3473 2
-0.0800 -0.5477 -1.7500 -0.0320 1
-0.0800 -0.4382 -1.3993 0.3929 2
-0.0800 -0.5619 -1.7854 0.0327 3
-0.0800 -0.2716 -0.8625 -0.2088 4
-0.0800 -0.5597 -1.7774 0.0977 3
-0.0800 -0.3092 -0.9812 -0.2000 2
-0.0800 -0.5614 -1.7805 0.1633 1
-0.0800 -0.3406 -1.0794 -0.1793 2
-0.0800 -0.5384 -1.7056 0.2196 1
-0.0800 -0.4616 -1.4613 -0.1882 1
-0.0800 -0.4296 -1.3600 0.2259 4
-0.0800 -0.3062 -0.9689 -0.0889 1
-0.0800 -0.4156 -1.3141 0.2679 6
-0.0800 -0.5544 -1.7519 -0.0963 1
-0.0800 -0.4077 -1.2875 0.3118 7
-0.0800 -0.5542 -1.7501 -0.0320 1
-0.0800 -0.4044 -1.2762 0.3587 6
-0.0800 -0.2333 -0.7326 -0.2060 6
-0.0800 -0.5751 -1.8064 0.0331 1
-0.0800 -0.2685 -0.8430 -0.2043 4
-0.0800 -0.5787 -1.8154 0.0999 1
-0.0800 -0.3066 -0.9614 -0.1962 2
-0.0800 -0.5773 -1.8089 0.1661 1
-0.0800 -0.3489 -1.0934 -0.1818 2
-0.0800 -0.5646 -1.7681 0.2279 1
-0.0800 -0.4676 -1.4636 -0.1887 1
-0.0800 -0.4903 -1.5335 0.2550 2
-0.0800 -0.3096 -0.9678 -0.0889 1
-0.0800 -0.4169 -1.3033 0.2660 10
-0.0800 -0.4131 -1.2898 0.3127 9
-0.0800 -0.5542 -1.7291 -0.0317 1
-0.0800 -0.4124 -1.2859 0.3618 8
-0.0800 -0.2357 -0.7319 -0.2060 6
-0.0800 -0.6047 -1.8767 0.0344 1
-0.0800 -0.2918 -0.9051 -0.2196 3
-0.0800 -0.5973 -1.8514 0.1020 1
-0.0800 -0.3134 -0.9716 -0.1984 2
-0.0800 -0.5833 -1.8069 0.1661 1
-0.0800 -0.3485 -1.0790 -0.1796 2
-0.0800 -0.4740 -1.4657 -0.1891 1
-0.0800 -0.4968 -1.5355 0.2556 2
-0.0800 -0.3214 -0.9933 -0.0913 1
-0.0800 -0.4741 -1.4644 0.2992 3
-0.0800 -0.5786 -1.7860 -0.0984 1
-0.0800 -0.4645 -1.4330 0.3478 3
-0.0800 -0.5701 -1.7576 -0.0323 1
-0.0800 -0.4675 -1.4406 0.4058 3
-0.0800 -0.2382 -0.7310 -0.2060 6
-0.0800 -0.5939 -1.8213 0.0334 1
-0.0800 -0.3034 -0.9300 -0.2259 2
-0.0800 -0.6037 -1.8493 0.1020 1
-0.0800 -0.3180 -0.9742 -0.1992 2
-0.0800 -0.5772 -1.7670 0.1626 1
-0.0800 -0.3609 -1.1040 -0.1840 2
-0.0800 -0.4326 -1.3226 0.1709 1
-0.0800 -0.4692 -1.4339 -0.1852 1
-0.0800 -0.4924 -1.5037 0.2506 1
-0.0800 -0.3397 -1.0376 -0.0955 1
-0.0800 -0.5012 -1.5299 0.3129 3
-0.0800 -0.5861 -1.7878 -0.0986 1
-0.0800 -0.4956 -1.5110 0.3671 3
-0.0800 -0.5712 -1.7404 -0.0320 1
-0.0800 -0.4906 -1.4940 0.4214 3
-0.0800 -0.6190 -1.8762 0.0345 1
-0.0800 -0.3116 -0.9438 -0.2295 2
-0.0800 -0.6102 -1.8472 0.1020 1
-0.0800 -0.3251 -0.9843 -0.2015 2
-0.0800 -0.3622 -1.0953 -0.1827 2
-0.0800 -0.4010 -1.2118 0.1567 2
-0.0800 -0.4817 -1.4548 -0.1882 1
-0.0800 -0.4858 -1.4664 0.2447 1
-0.0800 -0.3373 -1.0175 -0.0938 1
-0.0800 -0.5072 -1.5300 0.3133 3
-0.0800 -0.4935 -1.4870 0.3617 3
-0.0800 -0.6025 -1.8143 -0.0334 1
-0.0800 -0.4989 -1.5015 0.4239 3
-0.0800 -0.6319 -1.8930 0.0348 1
-0.0800 -0.3013 -0.9020 -0.2196 3
-0.0800 -0.6166 -1.8450 0.1020 1
-0.0800 -0.3250 -0.9719 -0.1992 2
-0.0800 -0.4331 -1.2943 0.1194 1
-0.0800 -0.3637 -1.0864 -0.1815 2
-0.0800 -0.4817 -1.4381 -0.1862 1
-0.0800 -0.5028 -1.5002 0.2506 2
-0.0800 -0.3358 -1.0012 -0.0924 1
-0.0800 -0.5040 -1.5020 0.3080 3
-0.0800 -0.5039 -1.5000 0.3653 3
-0.0800 -0.4955 -1.4741 0.4167 3
-0.0800 -0.6632 -1.9627 0.0362 1
-0.0800 -0.3046 -0.9009 -0.2196 3
-0.0800 -0.4967 -1.4681 0.0812 1
-0.0800 -0.3259 -0.9633 -0.1977 2
-0.0800 -0.4286 -1.2663 0.1170 1
-0.0800 -0.3675 -1.0852 -0.1815 2
-0.0800 -0.6161 -1.8180 0.2357 1
-0.0800 -0.3774 -1.1129 -0.1443 1
-0.0800 -0.5122 -1.5096 0.2525 2
-0.0800 -0.3266 -0.9622 -0.0889 1
-0.0800 -0.5093 -1.5003 0.3080 3
-0.0800 -0.5041 -1.4835 0.3617 3
-0.0800 -0.5845 -1.7191 -0.0317 1
-0.0800 -0.4972 -1.4613 0.4136 3
-0.0800 -0.4269 -1.2489 0.0230 1
-0.0800 -0.3077 -0.8998 -0.2196 3
-0.0800 -0.4125 -1.2056 0.0668 1
-0.0800 -0.3332 -0.9733 -0.2000 2
-0.0800 -0.6024 -1.7586 0.1626 1
-0.0800 -0.3715 -1.0838 -0.1815 2
-0.0800 -0.6289 -1.8347 0.2381 1
-0.0800 -0.3780 -1.1022 -0.1431 4
-0.0800 -0.5104 -1.4873 0.2490 2
-0.0800 -0.3300 -0.9610 -0.0889 1
-0.0800 -0.5148 -1.4984 0.3080 3
-0.0800 -0.6246 -1.8170 -0.1007 1
-0.0800 -0.5032 -1.4632 0.3572 3
-0.0800 -0.5060 -1.4705 0.4167 3
-0.0800 -0.5029 -0.5816 -0.2060 6
-0.0800 -0.6325 -0.7309 -0.2232 3
-0.0800 -0.7281 -0.8411 0.0583 2
-0.0800 -0.6720 -0.7763 -0.1996 2
-0.0800 -0.7343 -0.8480 0.0981 2
-0.0800 -0.7631 -0.8809 -0.1846 2
-0.0800 -0.7384 -0.8521 0.1384 3
-0.0800 -0.7255 -0.8370 -0.1360 3
-0.0800 -0.7312 -0.8432 0.1768 3
-0.0800 -0.7127 -0.8219 -0.0952 1
-0.0800 -0.7397 -0.8527 0.2194 2
-0.0800 -0.7304 -0.8417 -0.0584 1
-0.0800 -0.7371 -0.8491 0.2596 2
-0.0800 -0.7146 -0.8229 -0.0190 2
-0.0800 -0.7386 -0.8503 0.3018 2
-0.0800 -0.5049 -0.5798 -0.2060 6
-0.0800 -0.7526 -0.8640 0.0200 1
-0.0800 -0.6248 -0.7170 -0.2196 3
-0.0800 -0.7376 -0.8461 0.0588 2
-0.0800 -0.6670 -0.7651 -0.1973 2
-0.0800 -0.7372 -0.8454 0.0981 2
-0.0800 -0.7662 -0.8783 -0.1846 2
-0.0800 -0.7583 -0.8690 0.1416 3
-0.0800 -0.7350 -0.8419 -0.1372 3
-0.0800 -0.7484 -0.8570 0.1802 3
-0.0800 -0.7064 -0.8089 -0.0940 1
-0.0800 -0.7530 -0.8620 0.2225 2
-0.0800 -0.7412 -0.8482 -0.0590 1
-0.0800 -0.7503 -0.8583 0.2632 2
-0.0800 -0.7095 -0.8114 -0.0188 2
-0.0800 -0.7467 -0.8535 0.3039 2
-0.0800 -0.5070 -0.5781 -0.2060 6
-0.0800 -0.7609 -0.8674 0.0201 1
-0.0800 -0.6041 -0.6884 -0.2115 4
-0.0800 -0.7405 -0.8435 0.0588 2
-0.0800 -0.6826 -0.7775 -0.2011 2
-0.0800 -0.7507 -0.8548 0.0995 2
-0.0800 -0.7666 -0.8726 -0.1840 2
-0.0800 -0.7614 -0.8663 0.1416 3
-0.0800 -0.7497 -0.8528 -0.1394 3
-0.0800 -0.7592 -0.8633 0.1821 3
-0.0800 -0.7263 -0.8259 -0.0962 1
-0.0800 -0.7638 -0.8682 0.2248 2
-0.0800 -0.7442 -0.8456 -0.0590 1
-0.0800 -0.7585 -0.8615 0.2650 2
-0.0800 -0.7335 -0.8329 -0.0194 2
-0.0800 -0.7547 -0.8567 0.3059 2
-0.0800 -0.5090 -0.5763 -0.2060 6
-0.0800 -0.7666 -0.8677 0.0202 2
-0.0800 -0.6220 -0.7038 -0.2169 3
-0.0800 -0.7435 -0.8409 0.0588 1
-0.0800 -0.6879 -0.7781 -0.2019 2
-0.0800 -0.7563 -0.8552 0.0999 2
-0.0800 -0.7723 -0.8729 -0.1846 2
-0.0800 -0.7552 -0.8533 0.1399 3
-0.0800 -0.7658 -0.8650 -0.1419 3
-0.0800 -0.7806 -0.8814 0.1865 3
-0.0800 -0.7397 -0.8353 -0.0976 1
-0.0800 -0.7642 -0.8626 0.2240 2
-0.0800 -0.7564 -0.8535 -0.0598 1
-0.0800 -0.7744 -0.8734 0.2695 2
-0.0800 -0.7284 -0.8213 -0.0192 2
-0.0800 -0.7680 -0.8656 0.3101 2
-0.0800 -0.5110 -0.5745 -0.2060 6
-0.0800 -0.7670 -0.8620 0.0201 2
-0.0800 -0.6323 -0.7104 -0.2196 3
-0.0800 -0.7477 -0.8398 0.0589 2
-0.0800 -0.6697 -0.7522 -0.1958 2
-0.0800 -0.7673 -0.8615 0.1009 2
-0.0800 -0.7806 -0.8761 -0.1858 2
-0.0800 -0.7727 -0.8669 0.1426 3
-0.0800 -0.7556 -0.8475 -0.1394 3
-0.0800 -0.7797 -0.8742 0.1855 1
-0.0800 -0.7493 -0.8401 -0.0985 3
-0.0800 -0.7803 -0.8746 0.2278 2
-0.0800 -0.7594 -0.8508 -0.0598 1
-0.0800 -0.7619 -0.8533 0.2641 2
-0.0800 -0.7566 -0.8471 -0.0198 2
-0.0800 -0.7710 -0.8629 0.3101 2
-0.0800 -0.5130 -0.5727 -0.2060 6
-0.0800 -0.7873 -0.8787 0.0206 2
-0.0800 -0.6035 -0.6733 -0.2088 4
-0.0800 -0.7480 -0.8342 0.0587 2
-0.0800 -0.6723 -0.7499 -0.1958 2
-0.0800 -0.7782 -0.8677 0.1020 2
-0.0800 -0.7757 -0.8645 -0.1840 2
-0.0800 -0.7730 -0.8613 0.1421 3
-0.0800 -0.7666 -0.8537 -0.1409 3
-0.0800 -0.7854 -0.8744 0.1862 1
-0.0800 -0.7575 -0.8434 -0.0992 3
-0.0800 -0.7965 -0.8864 0.2316 2
-0.0800 -0.7650 -0.8511 -0.0600 1
-0.0800 -0.7622 -0.8477 0.2632 2
-0.0800 -0.7449 -0.8281 -0.0194 2
-0.0800 -0.7805 -0.8674 0.3127 1
-0.0800 -0.5150 -0.5709 -0.2060 6
-0.0800 -0.8011 -0.8878 0.0209 2
-0.0800 -0.6215 -0.6886 -0.2142 3
-0.0800 -0.7723 -0.8553 0.0604 2
-0.0800 -0.6881 -0.7621 -0.1996 2
-0.0800 -0.7759 -0.8590 0.1013 2
-0.0800 -0.7867 -0.8706 -0.1858 2
-0.0800 -0.7987 -0.8836 0.1462 3
-0.0800 -0.7749 -0.8570 -0.1419 3
-0.0800 -0.7831 -0.8658 0.1849 1
-0.0800 -0.7513 -0.8303 -0.0980 3
-0.0800 -0.7969 -0.8807 0.2309 2
-0.0800 -0.7948 -0.8781 -0.0621 3
-0.0800 -0.8044 -0.8884 0.2767 2
-0.0800 -0.7773 -0.8581 -0.0202 2
-0.0800 -0.7822 -0.8632 0.3121 1
-0.0800 -0.5171 -0.5690 -0.2060 6
-0.0800 -0.7854 -0.8643 0.0204 2
-0.0800 -0.6528 -0.7181 -0.2241 2
-0.0800 -0.7753 -0.8526 0.0604 2
-0.0800 -0.6830 -0.7508 -0.1973 2
-0.0800 -0.7871 -0.8650 0.1023 2
-0.0800 -0.7845 -0.8619 -0.1846 2
-0.0800 -0.7897 -0.8676 0.1440 3
-0.0800 -0.7805 -0.8572 -0.1423 3
-0.0800 -0.7941 -0.8718 0.1868 1
-0.0800 -0.7770 -0.8527 -0.1009 3
-0.0800 -0.8001 -0.8778 0.2309 2
-0.0800 -0.7899 -0.8663 -0.0614 3
-0.0800 -0.7919 -0.8682 0.2713 2
-0.0800 -0.7722 -0.8465 -0.0200 5
-0.0800 -0.7878 -0.8634 0.3132 2
-0.0800 -0.5190 -0.5672 -0.2060 6
-0.0800 -0.8020 -0.8762 0.0207 2
-0.0800 -0.6554 -0.7157 -0.2241 2
-0.0800 -0.7945 -0.8676 0.0617 2
-0.0800 -0.6856 -0.7485 -0.1973 2
-0.0800 -0.7982 -0.8711 0.1034 2
-0.0800 -0.7875 -0.8591 -0.1846 2
-0.0800 -0.7983 -0.8705 0.1450 3
-0.0800 -0.7890 -0.8602 -0.1433 3
-0.0800 -0.8025 -0.8749 0.1880 3
-0.0800 -0.7746 -0.8441 -0.1002 3
-0.0800 -0.8006 -0.8721 0.2301 2
-0.0800 -0.7916 -0.8621 -0.0613 3
-0.0800 -0.8108 -0.8826 0.2767 2
-0.0800 -0.7846 -0.8542 -0.0202 2
-0.0800 -0.8065 -0.8777 0.3194 2
-0.0800 -0.5210 -0.5654 -0.2060 6
-0.0800 -0.8103 -0.8794 0.0209 2
-0.0800 -0.6208 -0.6734 -0.2115 4
-0.0800 -0.7948 -0.8619 0.0614 2
-0.0800 -0.7042 -0.7634 -0.2019 2
-0.0800 -0.7958 -0.8624 0.1027 2
-0.0800 -0.7877 -0.8536 -0.1840 2
-0.0800 -0.8173 -0.8854 0.1479 2
-0.0800 -0.7865 -0.8517 -0.1423 3
-0.0800 -0.8123 -0.8793 0.1896 3
-0.0800 -0.8032 -0.8692 -0.1035 1
-0.0800 -0.8221 -0.8896 0.2355 2
-0.0800 -0.7972 -0.8624 -0.0615 1
-0.0800 -0.8137 -0.8799 0.2767 2
-0.0800 -0.8039 -0.8690 -0.0207 2
-0.0800 -0.8201 -0.8862 0.3235 2
-0.0800 -0.5229 -0.5637 -0.2060 6
-0.0800 -0.8216 -0.8854 0.0211 2
-0.0800 -0.6602 -0.7113 -0.2241 2
-0.0800 -0.7990 -0.8607 0.0615 2
-0.0800 -0.6987 -0.7524 -0.1996 2
-0.0800 -0.8177 -0.8802 0.1051 2
-0.0800 -0.7987 -0.8595 -0.1858 2
-0.0800 -0.8217 -0.8840 0.1482 2
-0.0800 -0.8030 -0.8635 -0.1448 3
-0.0800 -0.8233 -0.8853 0.1915 3
-0.0800 -0.8006 -0.8607 -0.1028 1
-0.0800 -0.8279 -0.8896 0.2362 2
-0.0800 -0.8029 -0.8625 -0.0618 1
-0.0800 -0.8167 -0.8771 0.2767 2
-0.0800 -0.8081 -0.8678 -0.0207 2
-0.0800 -0.8283 -0.8891 0.3256 2
-0.0800 -0.8381 -0.8972 0.0214 2
-0.0800 -0.6626 -0.7091 -0.2241 2
-0.0800 -0.8074 -0.8638 0.0620 2
-0.0800 -0.6933 -0.7414 -0.1973 2
-0.0800 -0.8180 -0.8745 0.1048 2
-0.0800 -0.8070 -0.8627 -0.1871 1
-0.0800 -0.8409 -0.8987 0.1511 2
-0.0800 -0.8140 -0.8695 -0.1462 3
-0.0800 -0.8290 -0.8853 0.1921 3
-0.0800 -0.7955 -0.8492 -0.1018 1
-0.0800 -0.8523 -0.9098 0.2423 2
-0.0800 -0.8276 -0.8832 -0.0634 1
-0.0800 -0.8330 -0.8886 0.2812 2
-0.0800 -0.8070 -0.8606 -0.0206 2
-0.0800 -0.8261 -0.8806 0.3235 2
-0.0800 -0.8317 -0.8841 0.0212 1
-0.0800 -0.6517 -0.6926 -0.2196 3
-0.0800 -0.8214 -0.8726 0.0628 1
-0.0800 -0.7092 -0.7534 -0.2011 2
-0.0800 -0.8264 -0.8775 0.1055 2
-0.0800 -0.7964 -0.8455 -0.1840 1
-0.0800 -0.8441 -0.8957 0.1511 2
-0.0800 -0.8361 -0.8869 -0.1497 3
-0.0800 -0.8430 -0.8939 0.1946 3
-0.0800 -0.8094 -0.8580 -0.1032 1
-0.0800 -0.8447 -0.8954 0.2393 2
-0.0800 -0.8170 -0.8657 -0.0624 1
-0.0800 -0.8481 -0.8984 0.2852 1
-0.0800 -0.8224 -0.8709 -0.0209 2
-0.0800 -0.8397 -0.8889 0.3277 2
-0.0800 -0.8568 -0.9044 0.0217 1
-0.0800 -0.6220 -0.6563 -0.2088 4
-0.0800 -0.8244 -0.8697 0.0628 2
-0.0800 -0.7065 -0.7450 -0.1996 2
-0.0800 -0.8460 -0.8919 0.1076 2
-0.0800 -0.7995 -0.8425 -0.1840 2
-0.0800 -0.8390 -0.8841 0.1497 2
-0.0800 -0.8364 -0.8811 -0.1492 3
-0.0800 -0.8515 -0.8967 0.1959 3
-0.0800 -0.8425 -0.8869 -0.1070 1
-0.0800 -0.8480 -0.8923 0.2393 2
-0.0800 -0.8284 -0.8714 -0.0630 1
-0.0800 -0.8581 -0.9024 0.2875 2
-0.0800 -0.8475 -0.8912 -0.0215 2
-0.0800 -0.8615 -0.9056 0.3349 1
-0.0800 -0.8532 -0.8940 0.0216 1
-0.0800 -0.6567 -0.6879 -0.2196 3
-0.0800 -0.8247 -0.8639 0.0626 2
-0.0800 -0.7091 -0.7426 -0.1996 2
-0.0800 -0.8436 -0.8831 0.1069 2
-0.0800 -0.8079 -0.8455 -0.1852 2
-0.0800 -0.8546 -0.8940 0.1518 2
-0.0800 -0.8369 -0.8752 -0.1487 3
-0.0800 -0.8738 -0.9137 0.2002 3
-0.0800 -0.8429 -0.8811 -0.1067 1
-0.0800 -0.8701 -0.9092 0.2446 2
-0.0800 -0.8383 -0.8757 -0.0635 1
-0.0800 -0.8505 -0.8881 0.2839 2
-0.0800 -0.8520 -0.8897 -0.0215 2
-0.0800 -0.8727 -0.9110 0.3380 1
-0.0800 -0.8700 -0.9056 0.0219 1
-0.0800 -0.6886 -0.7166 -0.2295 2
-0.0800 -0.8360 -0.8697 0.0632 2
-0.0800 -0.7063 -0.7344 -0.1981 2
-0.0800 -0.8619 -0.8960 0.1088 2
-0.0800 -0.8135 -0.8456 -0.1858 1
-0.0800 -0.8575 -0.8911 0.1518 2
-0.0800 -0.8370 -0.8695 -0.1482 3
-0.0800 -0.8687 -0.9021 0.1984 3
-0.0800 -0.8556 -0.8882 -0.1079 1
-0.0800 -0.8785 -0.9120 0.2461 2
-0.0800 -0.8440 -0.8758 -0.0637 1
-0.0800 -0.8561 -0.8881 0.2848 1
-0.0800 -0.8676 -0.8996 -0.0218 2
-0.0800 -0.8718 -0.9037 0.3365 1
-0.0800 -0.8704 -0.8997 0.0219 1
-0.0800 -0.6613 -0.6834 -0.2196 3
-0.0800 -0.8502 -0.8782 0.0641 1
-0.0800 -0.7032 -0.7264 -0.1965 2
-0.0800 -0.8746 -0.9031 0.1100 2
-0.0800 -0.8137 -0.8399 -0.1852 1
-0.0800 -0.8814 -0.9095 0.1555 2
-0.0800 -0.8539 -0.8808 -0.1506 3
-0.0800 -0.8774 -0.9047 0.1996 1
-0.0800 -0.8766 -0.9040 -0.1102 1
-0.0800 -0.8872 -0.9145 0.2477 2
-0.0800 -0.8693 -0.8958 -0.0654 1
-0.0800 -0.8579 -0.8837 0.2843 1
-0.0800 -0.8512 -0.8765 -0.0213 2
-0.0800 -0.8992 -0.9256 0.3458 1
-0.0800 -0.8721 -0.8952 0.0218 1
-0.0800 -0.6637 -0.6811 -0.2196 3
-0.0800 -0.8532 -0.8753 0.0641 1
-0.0800 -0.7222 -0.7409 -0.2011 2
-0.0800 -0.8916 -0.9143 0.1117 1
-0.0800 -0.8138 -0.8343 -0.1846 1
-0.0800 -0.9525 -0.9760 0.1674 1
-0.0800 -0.8764 -0.8977 -0.1540 3
-0.0800 -0.8985 -0.9200 0.2037 1
-0.0800 -0.8811 -0.9023 -0.1103 1
-0.0800 -0.9288 -0.9508 0.2584 19
-0.0800 -0.8780 -0.8985 -0.0658 1
-0.0800 -0.8794 -0.8993 -0.0220 2
-0.0800 -0.8892 -0.9065 0.0222 1
-0.0800 -0.6497 -0.6621 -0.2142 3
-0.0800 -1.4019 -1.4281 0.1049 2
-0.0800 -0.7193 -0.7327 -0.1996 2
-0.0800 -1.2634 -1.2865 0.1578 2
-0.0800 -0.8278 -0.8427 -0.1871 1
-0.0800 -1.2467 -1.2686 0.2184 3
-0.0800 -0.8879 -0.9032 -0.1555 3
-0.0800 -1.2479 -1.2690 0.2819 2
-0.0800 -0.9332 -0.9490 -0.1164 1
-0.0800 -1.4470 -1.4709 0.4011 32
-0.0800 -0.9876 -1.0036 -0.0738 1
-0.0800 -1.0102 -1.0259 -0.0251 4
-0.0800 -0.5403 -0.5471 -0.2060 6
-0.0800 -1.4419 -1.4596 0.0358 4
-0.0800 -0.6219 -0.6293 -0.2043 4
-0.0800 -1.4280 -1.4445 0.1065 3
-0.0800 -0.7163 -0.7246 -0.1981 2
-0.0800 -1.3029 -1.3175 0.1621 2
-0.0800 -0.8280 -0.8370 -0.1865 1
-0.0800 -1.2637 -1.2770 0.2206 3
-0.0800 -0.8659 -0.8747 -0.1511 3
-0.0800 -1.2607 -1.2731 0.2838 2
-0.0800 -1.5239 -1.5389 -0.1895 1
-0.0800 -1.4535 -1.4673 0.4015 41
-0.0800 -1.4858 -1.4988 0.4872 53
-0.0800 -1.4419 -1.4540 -0.0357 4
-0.0800 -1.4857 -1.4977 0.5653 47
-0.0800 -0.5422 -0.5452 -0.2060 6
-0.0800 -1.4498 -1.4574 0.0359 4
-0.0800 -0.6845 -0.6879 -0.2241 2
-0.0800 -1.4316 -1.4381 0.1063 3
-0.0800 -0.7299 -0.7333 -0.2011 2
-0.0800 -1.3004 -1.3059 0.1612 3
-0.0800 -0.8309 -0.8341 -0.1865 1
-0.0800 -1.2709 -1.2754 0.2211 3
-0.0800 -0.8857 -0.8885 -0.1540 3
-0.0800 -1.2623 -1.2659 0.2831 2
-0.0800 -1.5377 -1.5420 -0.1905 2
-0.0800 -1.4642 -1.4678 0.4030 35
-0.0800 -1.9920 -1.9962 -0.1478 18
-0.0800 -1.4965 -1.4992 0.4890 57
-0.0800 -1.4328 -1.4348 -0.0354 5
-0.0800 -1.5237 -1.5253 0.5777 61
-0.0800 -1.4506 -1.4481 0.0358 4
-0.0800 -0.7035 -0.7020 -0.2295 2
-0.0800 -1.4296 -1.4261 0.1058 3
-0.0800 -0.7325 -0.7307 -0.2011 2
-0.0800 -1.3120 -1.3084 0.1621 4
-0.0800 -0.8282 -0.8256 -0.1852 2
-0.0800 -1.2754 -1.2709 0.2211 3
-0.0800 -0.9085 -0.9050 -0.1575 3
-0.0800 -1.2584 -1.2531 0.2813 2
-0.0800 -1.5459 -1.5394 -0.1909 2
-0.0800 -1.4665 -1.4599 0.4022 36
-0.0800 -2.0018 -1.9921 -0.1480 17
-0.0800 -1.5073 -1.4994 0.4908 56
-0.0800 -1.4435 -1.4354 -0.0355 4
-0.0800 -1.5098 -1.5009 0.5704 49
-0.0800 -0.5460 -0.5414 -0.2060 6
-0.0800 -1.4486 -1.4360 0.0356 3
-0.0800 -0.6893 -0.6831 -0.2241 2
-0.0800 -1.4416 -1.4281 0.1063 3
-0.0800 -0.7406 -0.7337 -0.2026 2
-0.0800 -1.3223 -1.3094 0.1628 3
-0.0800 -0.8367 -0.8283 -0.1865 1
-0.0800 -1.2798 -1.2664 0.2211 3
-0.0800 -0.9060 -0.8963 -0.1565 3
-0.0800 -1.2627 -1.2487 0.2813 2
-0.0800 -1.5456 -1.5284 -0.1902 2
-0.0800 -1.4590 -1.4423 0.3988 39
-0.0800 -1.5125 -1.4942 0.4908 56
-0.0800 -1.4584 -1.4402 -0.0358 4
-0.0800 -1.5192 -1.4997 0.5720 55
-0.0800 -0.5478 -0.5395 -0.2060 6
-0.0800 -1.4578 -1.4351 0.0357 3
-0.0800 -0.6778 -0.6670 -0.2196 3
-0.0800 -1.4480 -1.4245 0.1065 3
-0.0800 -0.7320 -0.7201 -0.1996 2
-0.0800 -1.3481 -1.3257 0.1654 4
-0.0800 -0.8368 -0.8226 -0.1858 2
-0.0800 -1.2757 -1.2536 0.2196 3
-0.0800 -0.9318 -0.9154 -0.1604 3
-0.0800 -1.2685 -1.2457 0.2816 3
-0.0800 -1.5623 -1.5342 -0.1916 2
-0.0800 -1.4669 -1.4400 0.3996 48
-0.0800 -1.6009 -1.5710 -0.1175 1
-0.0800 -1.5233 -1.4943 0.4926 54
-0.0800 -1.5277 -1.4981 -0.0373 2
-0.0800 -1.5285 -1.4984 0.5735 56
-0.0800 -0.5497 -0.5376 -0.2060 6
-0.0800 -1.4700 -1.4370 0.0359 3
-0.0800 -0.6606 -0.6456 -0.2133 4
-0.0800 -1.4416 -1.4082 0.1056 3
-0.0800 -0.7401 -0.7230 -0.2011 2
-0.0800 -1.3613 -1.3294 0.1665 4
-0.0800 -0.8396 -0.8196 -0.1858 1
-0.0800 -1.2829 -1.2519 0.2201 3
-0.0800 -0.9492 -0.9260 -0.1628 2
-0.0800 -1.2728 -1.2412 0.2816 4
-0.0800 -1.5833 -1.5440 -0.1935 3
-0.0800 -1.4761 -1.4390 0.4007 45
-0.0800 -1.6092 -1.5682 -0.1178 1
-0.0800 -1.5299 -1.4904 0.4931 51
-0.0800 -1.5802 -1.5388 -0.0385 1
-0.0800 -1.5434 -1.5025 0.5772 53
-0.0800 -0.5516 -0.5356 -0.2060 6
-0.0800 -1.4750 -1.4319 0.0359 3
-0.0800 -0.7020 -0.6813 -0.2259 2
-0.0800 -1.4493 -1.4060 0.1058 4
-0.0800 -0.7257 -0.7040 -0.1965 2
-0.0800 -1.3888 -1.3468 0.1693 4
-0.0800 -0.8482 -0.8222 -0.1871 1
-0.0800 -1.2873 -1.2475 0.2201 3
-0.0800 -0.9866 -0.9558 -0.1687 2
-0.0800 -1.2729 -1.2327 0.2806 4
-0.0800 -1.5858 -1.5357 -0.1931 4
-0.0800 -1.4825 -1.4352 0.4011 43
-0.0800 -1.5888 -1.5375 -0.1159 1
-0.0800 -1.5589 -1.5080 0.5007 46
-0.0800 -2.0154 -1.9489 -0.0489 2
-0.0800 -1.5473 -1.4958 0.5766 44
-0.0800 -0.5535 -0.5337 -0.2060 6
-0.0800 -1.4800 -1.4267 0.0359 3
-0.0800 -0.6679 -0.6437 -0.2142 3
-0.0800 -1.4597 -1.4067 0.1062 4
-0.0800 -0.7225 -0.6960 -0.1950 2
-0.0800 -1.3878 -1.3364 0.1686 4
-0.0800 -0.8368 -0.8055 -0.1840 1
-0.0800 -1.2973 -1.2485 0.2211 3
-0.0800 -1.0013 -0.9635 -0.1706 1
-0.0800 -1.2770 -1.2284 0.2806 5
-0.0800 -1.5783 -1.5177 -0.1916 3
-0.0800 -1.4988 -1.4409 0.4041 35
-0.0800 -1.9830 -1.9056 -0.1441 5
-0.0800 -1.5836 -1.5218 0.5070 46
-0.0800 -2.0665 -1.9852 -0.0500 29
-0.0800 -1.5522 -1.4906 0.5766 19
-0.0800 -1.4789 -1.4163 0.0357 3
-0.0800 -0.6870 -0.6576 -0.2196 3
-0.0800 -1.4644 -1.4018 0.1062 4
-0.0800 -0.7276 -0.6963 -0.1958 2
-0.0800 -1.4037 -1.3428 0.1700 15
-0.0800 -0.8594 -0.8219 -0.1883 1
-0.0800 -1.2986 -1.2414 0.2206 4
-0.0800 -1.0504 -1.0041 -0.1784 1
-0.0800 -1.2882 -1.2310 0.2822 5
-0.0800 -1.5847 -1.5139 -0.1917 1
-0.0800 -1.4979 -1.4305 0.4026 29
-0.0800 -1.9864 -1.8963 -0.1439 19
-0.0800 -1.5971 -1.5246 0.5097 18
-0.0800 -2.0615 -1.9673 -0.0497 35
-0.0800 -1.4749 -1.4031 0.0355 3
-0.0800 -0.6891 -0.6553 -0.2196 3
-0.0800 -1.4736 -1.4009 0.1066 5
-0.0800 -0.7356 -0.6993 -0.1973 2
-0.0800 -1.3865 -1.3176 0.1673 23
-0.0800 -0.8421 -0.8000 -0.1840 1
-0.0800 -1.3013 -1.2357 0.2203 4
-0.0800 -1.0740 -1.0196 -0.1818 1
-0.0800 -1.3025 -1.2360 0.2844 5
-0.0800 -1.5069 -1.4295 0.4038 21
-0.0800 -1.9753 -1.8732 -0.1427 17
-0.0800 -2.0568 -1.9491 -0.0495 28
-0.0800 -0.5588 -0.5281 -0.2060 6
-0.0800 -1.4856 -1.4034 0.0357 3
-0.0800 -0.6914 -0.6529 -0.2196 3
-0.0800 -1.4669 -1.3847 0.1057 4
-0.0800 -0.7524 -0.7102 -0.2011 2
-0.0800 -1.4099 -1.3305 0.1696 20
-0.0800 -0.8507 -0.8025 -0.1852 1
-0.0800 -1.3142 -1.2393 0.2218 4
-0.0800 -1.1151 -1.0512 -0.1882 1
-0.0800 -1.3169 -1.2410 0.2866 5
-0.0800 -1.5462 -1.4566 0.4129 8
-0.0800 -1.9818 -1.8663 -0.1427 18
-0.0800 -2.2391 -2.1078 0.7099 74
-0.0800 -2.0606 -1.9391 -0.0494 33
-0.0800 -2.2274 -2.0954 0.8194 45
-0.0800 -0.5607 -0.5261 -0.2060 6
-0.0800 -1.4993 -1.4064 0.0359 3
-0.0800 -0.7250 -0.6798 -0.2295 2
-0.0800 -1.4688 -1.3769 0.1055 3
-0.0800 -0.7491 -0.7022 -0.1996 2
-0.0800 -1.4247 -1.3351 0.1708 22
-0.0800 -0.8563 -0.8022 -0.1858 2
-0.0800 -1.3388 -1.2537 0.2252 4
-0.0800 -1.1246 -1.0527 -0.1891 2
-0.0800 -1.3082 -1.2242 0.2838 4
-0.0800 -1.0329 -0.9666 -0.1238 1
-0.0800 -1.5943 -1.4914 0.4244 20
-0.0800 -1.9913 -1.8621 -0.1429 23
-0.0800 -2.2422 -2.0960 0.7086 76
-0.0800 -2.0455 -1.9114 -0.0489 34
-0.0800 -2.2206 -2.0744 0.8142 29
-0.0800 -1.5042 -1.4012 0.0359 4
-0.0800 -0.7273 -0.6773 -0.2295 2
-0.0800 -1.4750 -1.3731 0.1056 3
-0.0800 -0.7458 -0.6943 -0.1981 2
-0.0800 -1.4294 -1.3301 0.1708 20
-0.0800 -0.8620 -0.8019 -0.1865 1
-0.0800 -1.3985 -1.3004 0.2345 6
-0.0800 -1.1399 -1.0596 -0.1911 2
-0.0800 -1.3197 -1.2263 0.2853 4
-0.0800 -1.0363 -0.9629 -0.1238 1
-0.0800 -2.2353 -2.0764 0.5930 51
-0.0800 -1.9948 -1.8524 -0.1427 14
-0.0800 -2.2138 -2.0550 0.6973 27
-0.0800 -2.0565 -1.9084 -0.0490 38
-0.0800 -2.2094 -2.0496 0.8075 38
-0.0800 -1.4944 -1.3823 0.0355 3
-0.0800 -0.6496 -0.6007 -0.2043 4
-0.0800 -1.4740 -1.3625 0.1052 3
-0.0800 -0.7540 -0.6970 -0.1996 2
-0.0800 -1.4443 -1.3346 0.1720 27
-0.0800 -0.8561 -0.7908 -0.1846 1
-0.0800 -1.4438 -1.3333 0.2413 15
-0.0800 -1.1436 -1.0556 -0.1911 2
-0.0800 -1.3458 -1.2418 0.2900 3
-0.0800 -1.0572 -0.9755 -0.1259 1
-0.0800 -2.2526 -2.0779 0.5957 61
-0.0800 -2.0027 -1.8468 -0.1428 12
-0.0800 -2.2410 -2.0657 0.7036 59
-0.0800 -2.0441 -1.8836 -0.0485 33
-0.0800 -2.1910 -2.0183 0.7982 34
-0.0800 -0.5661 -0.5202 -0.2060 6
-0.0800 -0.6287 -0.5773 -0.1971 5
-0.0800 -1.4875 -1.3655 0.1058 3
-0.0800 -0.7564 -0.6943 -0.1996 2
-0.0800 -1.4651 -1.3444 0.1740 15
-0.0800 -0.8589 -0.7878 -0.1846 2
-0.0800 -1.4558 -1.3349 0.2425 13
-0.0800 -1.1531 -1.0570 -0.1921 2
-0.0800 -1.4855 -1.3612 0.3191 1
-0.0800 -1.0635 -0.9745 -0.1262 1
-0.0800 -2.2410 -2.0528 0.5907 61
-0.0800 -1.9856 -1.8182 -0.1411 18
-0.0800 -2.2482 -2.0579 0.7036 68
-0.0800 -2.0713 -1.8953 -0.0490 41
-0.0800 -2.1866 -2.0002 0.7941 40
-0.0800 -0.5680 -0.5183 -0.2060 6
-0.0800 -2.0506 -1.8705 0.0484 26
-0.0800 -0.7229 -0.6591 -0.2259 2
-0.0800 -1.4908 -1.3589 0.1057 3
-0.0800 -0.7588 -0.6917 -0.1996 2
-0.0800 -1.4948 -1.3621 0.1769 6
-0.0800 -0.8645 -0.7875 -0.1852 2
-0.0800 -1.4810 -1.3485 0.2459 11
-0.0800 -1.1465 -1.0436 -0.1904 2
-0.0800 -1.5283 -1.3906 0.3273 2
-0.0800 -1.0803 -0.9827 -0.1278 1
-0.0800 -2.2467 -2.0437 0.5904 59
-0.0800 -1.9993 -1.8180 -0.1416 23
-0.0800 -2.2380 -2.0343 0.6982 68
-0.0800 -2.0675 -1.8787 -0.0488 46
-0.0800 -2.1879 -1.9873 0.7920 48
-0.0800 -0.5699 -0.5162 -0.2060 6
-0.0800 -2.0616 -1.8674 0.0486 40
-0.0800 -0.7194 -0.6514 -0.2241 2
-0.0800 -1.4985 -1.3564 0.1059 3
-0.0800 -0.7526 -0.6810 -0.1973 2
-0.0800 -1.5042 -1.3606 0.1774 6
-0.0800 -0.8733 -0.7896 -0.1865 1
-0.0800 -1.5092 -1.3647 0.2498 3
-0.0800 -1.1501 -1.0396 -0.1904 2
-0.0800 -1.5170 -1.3707 0.3238 3
-0.0800 -1.0956 -0.9896 -0.1292 2
-0.0800 -2.2513 -2.0328 0.5896 59
-0.0800 -2.0104 -1.8147 -0.1419 33
-0.0800 -2.2484 -2.0287 0.6991 65
-0.0800 -2.0652 -1.8634 -0.0486 48
-0.0800 -2.1876 -1.9732 0.7894 54
-0.0800 -0.5717 -0.5142 -0.2060 6
-0.0800 -2.0714 -1.8625 0.0486 48
-0.0800 -0.7276 -0.6540 -0.2259 2
-0.0800 -1.5032 -1.3512 0.1059 3
-0.0800 -0.7462 -0.6705 -0.1950 2
-0.0800 -1.4986 -1.3460 0.1762 4
-0.0800 -0.8701 -0.7813 -0.1852 1
-0.0800 -1.5320 -1.3750 0.2528 4
-0.0800 -1.1584 -1.0394 -0.1911 2
-0.0800 -1.5188 -1.3628 0.3232 3
-0.0800 -1.0961 -0.9831 -0.1288 2
-0.0800 -2.2525 -2.0197 0.5881 59
-0.0800 -2.0257 -1.8156 -0.1426 38
-0.0800 -2.2496 -2.0156 0.6973 65
-0.0800 -2.0687 -1.8535 -0.0485 42
-0.0800 -2.1787 -1.9514 0.7837 50
-0.0800 -0.5734 -0.5122 -0.2060 6
-0.0800 -2.0701 -1.8489 0.0484 44
-0.0800 -0.7297 -0.6515 -0.2259 2
-0.0800 -1.5139 -1.3512 0.1063 3
-0.0800 -0.7544 -0.6731 -0.1965 2
-0.0800 -1.5033 -1.3408 0.1762 4
-0.0800 -0.8727 -0.7784 -0.1852 1
-0.0800 -1.5306 -1.3647 0.2518 4
-0.0800 -1.1692 -1.0421 -0.1923 5
-0.0800 -1.5236 -1.3574 0.3232 3
-0.0800 -1.1099 -0.9886 -0.1300 2
-0.0800 -2.2446 -1.9991 0.5843 59
-0.0800 -2.0287 -1.8062 -0.1424 40
-0.0800 -2.2505 -2.0030 0.6955 70
-0.0800 -2.0841 -1.8543 -0.0487 44
-0.0800 -2.1826 -1.9412 0.7827 49
-0.0800 -0.5751 -0.5103 -0.2060 6
-0.0800 -2.0720 -1.8377 0.0483 46
-0.0800 -0.7320 -0.6490 -0.2259 2
-0.0800 -1.5201 -1.3472 0.1065 3
-0.0800 -0.7625 -0.6758 -0.1981 2
-0.0800 -1.5092 -1.3371 0.1764 3
-0.0800 -0.8695 -0.7701 -0.1840 1
-0.0800 -1.5234 -1.3488 0.2498 4
-0.0800 -1.1862 -1.0499 -0.1945 27
-0.0800 -1.5431 -1.3652 0.3263 3
-0.0800 -1.1236 -0.9941 -0.1313 2
-0.0800 -2.2486 -1.9887 0.5835 61
-0.0800 -2.0290 -1.7939 -0.1419 38
-0.0800 -2.2545 -1.9925 0.6946 68
-0.0800 -2.0876 -1.8443 -0.0486 42
-0.0800 -2.1850 -1.9297 0.7811 54
-0.0800 -0.5769 -0.5083 -0.2060 6
-0.0800 -2.0784 -1.8305 0.0483 33
-0.0800 -0.7460 -0.6567 -0.2295 2
-0.0800 -1.5128 -1.3314 0.1056 3
-0.0800 -0.7590 -0.6680 -0.1965 2
-0.0800 -1.5228 -1.3397 0.1774 3
-0.0800 -0.8781 -0.7723 -0.1852 1
-0.0800 -1.5222 -1.3382 0.2489 4
-0.0800 -1.5419 -1.3546 0.3251 3
-0.0800 -1.1451 -1.0060 -0.1333 2
-0.0800 -2.2496 -1.9756 0.5820 61
-0.0800 -2.0368 -1.7881 -0.1420 30
-0.0800 -2.2439 -1.9692 0.6893 70
-0.0800 -2.1060 -1.8476 -0.0489 46
-0.0800 -2.1874 -1.9183 0.7796 58
-0.0800 -0.5787 -0.5062 -0.2060 6
-0.0800 -2.0818 -1.8206 0.0483 32
-0.0800 -0.7160 -0.6259 -0.2196 3
-0.0800 -1.5202 -1.3290 0.1058 3
-0.0800 -0.7702 -0.6731 -0.1988 2
-0.0800 -1.5200 -1.3278 0.1766 3
-0.0800 -0.8749 -0.7640 -0.1840 1
-0.0800 -1.5268 -1.3329 0.2489 3
-0.0800 -1.1756 -1.0259 -0.1916 41
-0.0800 -1.5285 -1.3339 0.3213 3
-0.0800 -1.1501 -1.0033 -0.1335 2
-0.0800 -2.2535 -1.9652 0.5812 56
-0.0800 -2.0400 -1.7783 -0.1418 34
-0.0800 -2.2493 -1.9601 0.6888 73
-0.0800 -2.0955 -1.8261 -0.0485 41
-0.0800 -2.1894 -1.9072 0.7780 55
-0.0800 -0.5805 -0.5042 -0.2060 6
-0.0800 -2.1044 -1.8281 0.0487 9
-0.0800 -0.7504 -0.6516 -0.2295 2
-0.0800 -2.0965 -1.8199 0.1455 9
-0.0800 -0.7577 -0.6575 -0.1950 2
-0.0800 -1.5216 -1.3199 0.1762 3
-0.0800 -0.8834 -0.7663 -0.1852 1
-0.0800 -1.5283 -1.3252 0.2484 3
-0.0800 -1.1745 -1.0181 -0.1908 5
-0.0800 -1.5302 -1.3260 0.3207 3
-0.0800 -1.1566 -1.0019 -0.1339 2
-0.0800 -2.2482 -1.9474 0.5782 64
-0.0800 -2.0625 -1.7859 -0.1430 37
-0.0800 -2.2499 -1.9475 0.6870 71
-0.0800 -2.1034 -1.8201 -0.0486 17
-0.0800 -2.1829 -1.8882 0.7734 50
-0.0800 -0.5821 -0.5023 -0.2060 6
-0.0800 -2.1093 -1.8194 0.0486 23
-0.0800 -0.6996 -0.6032 -0.2133 4
-0.0800 -2.0953 -1.8060 0.1450 20
-0.0800 -0.7748 -0.6678 -0.1988 2
-0.0800 -1.5184 -1.3084 0.1754 3
-0.0800 -0.8920 -0.7684 -0.1865 1
-0.0800 -1.5269 -1.3147 0.2474 3
-0.0800 -1.1886 -1.0231 -0.1926 3
-0.0800 -1.5378 -1.3232 0.3213 3
-0.0800 -1.1765 -1.0123 -0.1358 2
-0.0800 -2.2207 -1.9101 0.5694 53
-0.0800 -2.0657 -1.7761 -0.1428 30
-0.0800 -2.2522 -1.9359 0.6857 68
-0.0800 -2.1310 -1.8310 -0.0490 34
-0.0800 -2.1821 -1.8743 0.7708 32
-0.0800 -0.5839 -0.5003 -0.2060 6
-0.0800 -2.1369 -1.8303 0.0491 12
-0.0800 -0.7224 -0.6185 -0.2196 3
-0.0800 -2.1076 -1.8039 0.1454 34
-0.0800 -0.7622 -0.6523 -0.1950 2
-0.0800 -1.5396 -1.3173 0.1773 4
-0.0800 -0.8887 -0.7601 -0.1852 1
-0.0800 -1.5103 -1.2913 0.2440 3
-0.0800 -1.1831 -1.0112 -0.1911 2
-0.0800 -1.5574 -1.3306 0.3244 2
-0.0800 -1.1694 -0.9991 -0.1346 1
-0.0800 -2.2408 -1.9138 0.5728 56
-0.0800 -2.2545 -1.9242 0.6843 74
-0.0800 -2.1419 -1.8274 -0.0491 41
-0.0800 -2.1783 -1.8579 0.7671 42
-0.0800 -2.1326 -1.8137 0.0489 38
-0.0800 -0.7245 -0.6160 -0.2196 3
-0.0800 -2.0972 -1.7823 0.1442 26
-0.0800 -0.7794 -0.6624 -0.1988 2
-0.0800 -1.5503 -1.3171 0.1780 4
-0.0800 -0.8853 -0.7519 -0.1840 1
-0.0800 -1.5224 -1.2924 0.2452 4
-0.0800 -1.1775 -0.9993 -0.1896 1
-0.0800 -1.5530 -1.3175 0.3226 2
-0.0800 -1.2124 -1.0286 -0.1391 1
-0.0800 -2.2355 -1.8958 0.5698 68
-0.0800 -2.0811 -1.7642 -0.1430 2
-0.0800 -2.2256 -1.8861 0.6735 52
-0.0800 -2.1254 -1.8006 -0.0486 17
-0.0800 -2.2099 -1.8715 0.7759 42
-0.0800 -2.1359 -1.8037 0.0488 23
-0.0800 -0.7475 -0.6310 -0.2259 2
-0.0800 -2.1080 -1.7788 0.1446 31
-0.0800 -0.7697 -0.6495 -0.1958 2
-0.0800 -1.5518 -1.3091 0.1776 4
-0.0800 -0.9061 -0.7641 -0.1877 1
-0.0800 -1.5329 -1.2922 0.2462 4
-0.0800 -1.1689 -0.9850 -0.1877 1
-0.0800 -1.5546 -1.3096 0.3219 2
-0.0800 -2.1610 -1.8197 0.5491 34
-0.0800 -2.0979 -1.7660 -0.1437 6
-0.0800 -2.2396 -1.8846 0.6758 68
-0.0800 -2.1118 -1.7764 -0.0482 21
-0.0800 -2.1942 -1.8451 0.7682 51
-0.0800 -2.1544 -1.8065 0.0491 35
-0.0800 -0.7288 -0.6109 -0.2196 3
-0.0800 -2.1111 -1.7689 0.1443 22
-0.0800 -0.7690 -0.6443 -0.1950 2
-0.0800 -1.5472 -1.2960 0.1766 4
-0.0800 -0.9118 -0.7634 -0.1883 1
-0.0800 -1.5420 -1.2907 0.2469 3
-0.0800 -1.1784 -0.9860 -0.1887 1
-0.0800 -1.5440 -1.2914 0.3188 3
-0.0800 -1.6597 -1.3882 -0.1893 1
-0.0800 -2.1719 -1.8160 0.5503 35
-0.0800 -2.1102 -1.7638 -0.1441 10
-0.0800 -2.2417 -1.8730 0.6744 73
-0.0800 -2.1241 -1.7742 -0.0483 43
-0.0800 -2.1858 -1.8250 0.7630 52
-0.0800 -0.5908 -0.4921 -0.2060 6
-0.0800 -2.1592 -1.7977 0.0490 39
-0.0800 -0.7519 -0.6258 -0.2259 2
-0.0800 -2.1909 -1.8228 0.1494 10
-0.0800 -0.7772 -0.6467 -0.1965 2
-0.0800 -1.5609 -1.2982 0.1776 4
-0.0800 -0.9053 -0.7527 -0.1865 2
-0.0800 -1.5374 -1.2777 0.2454 3
-0.0800 -1.2062 -1.0022 -0.1926 1
-0.0800 -1.5667 -1.3012 0.3226 3
-0.0800 -1.6875 -1.4015 -0.1919 2
-0.0800 -2.2250 -1.8472 0.5621 58
-0.0800 -2.1225 -1.7615 -0.1446 17
-0.0800 -2.2482 -1.8652 0.6744 76
-0.0800 -2.1411 -1.7757 -0.0486 51
-0.0800 -2.1818 -1.8088 0.7594 54
-0.0800 -2.1593 -1.7850 0.0489 35
-0.0800 -0.7331 -0.6058 -0.2196 3
-0.0800 -0.7795 -0.6439 -0.1965 2
-0.0800 -1.5793 -1.3042 0.1792 4
-0.0800 -0.8957 -0.7394 -0.1840 2
-0.0800 -1.5418 -1.2723 0.2454 3
-0.0800 -1.2005 -0.9904 -0.1911 1
-0.0800 -1.5804 -1.3033 0.3244 3
-0.0800 -1.6893 -1.3931 -0.1916 2
-0.0800 -2.2405 -1.8470 0.5644 68
-0.0800 -2.1224 -1.7490 -0.1441 18
-0.0800 -2.2427 -1.8474 0.6708 74
-0.0800 -2.1303 -1.7542 -0.0482 36
-0.0800 -2.1881 -1.8011 0.7594 54
-0.0800 -2.1763 -1.7864 0.0491 11
-0.0800 -0.7563 -0.6205 -0.2259 2
-0.0800 -2.2144 -1.8164 0.1501 52
-0.0800 -0.7939 -0.6512 -0.1996 2
-0.0800 -1.6023 -1.3138 0.1813 4
-0.0800 -0.8983 -0.7363 -0.1840 2
-0.0800 -1.5508 -1.2707 0.2462 4
-0.0800 -1.1917 -0.9761 -0.1891 1
-0.0800 -1.5727 -1.2877 0.3219 3
-0.0800 -1.6973 -1.3897 -0.1919 2
-0.0800 -2.2470 -1.8391 0.5644 72
-0.0800 -2.1595 -1.7669 -0.1462 19
-0.0800 -2.2370 -1.8297 0.6672 76
-0.0800 -2.1395 -1.7493 -0.0482 20
-0.0800 -2.1943 -1.7935 0.7594 54
-0.0800 -2.2352 -1.8217 0.0503 39
-0.0800 -0.7373 -0.6007 -0.2196 3
-0.0800 -2.2037 -1.7948 0.1489 43
-0.0800 -0.7931 -0.6459 -0.1988 2
-0.0800 -0.9070 -0.7382 -0.1852 1
-0.0800 -1.5614 -1.2703 0.2472 4
-0.0800 -1.1982 -0.9744 -0.1896 1
-0.0800 -1.5619 -1.2698 0.3188 2
-0.0800 -1.6913 -1.3750 -0.1907 2
-0.0800 -2.2549 -1.8325 0.5648 73
-0.0800 -2.1718 -1.7644 -0.1466 13
-0.0800 -2.2373 -1.8169 0.6654 71
-0.0800 -2.1533 -1.7481 -0.0484 11
-0.0800 -2.1916 -1.7785 0.7563 53
-0.0800 -2.2431 -1.8152 0.0504 54
-0.0800 -0.7606 -0.6152 -0.2259 2
-0.0800 -2.2162 -1.7921 0.1494 18
-0.0800 -0.7893 -0.6382 -0.1973 2
-0.0800 -2.2235 -1.7973 0.2501 38
-0.0800 -0.9219 -0.7449 -0.1877 1
-0.0800 -1.5751 -1.2723 0.2486 4
-0.0800 -1.2047 -0.9727 -0.1901 1
-0.0800 -1.5786 -1.2742 0.3213 2
-0.0800 -1.6790 -1.3553 -0.1888 2
-0.0800 -2.2521 -1.8172 0.5625 73
-0.0800 -2.2437 -1.8091 0.6654 73
-0.0800 -2.1857 -1.7612 0.7521 55
-0.0800 -0.5993 -0.4817 -0.2060 6
-0.0800 -2.2261 -1.7885 0.0498 31
-0.0800 -0.7415 -0.5955 -0.2196 3
-0.0800 -2.2237 -1.7860 0.1495 23
-0.0800 -0.7915 -0.6355 -0.1973 2
-0.0800 -2.2375 -1.7958 0.2510 55
-0.0800 -0.8937 -0.7170 -0.1815 1
-0.0800 -1.5826 -1.2693 0.2491 4
-0.0800 -1.2328 -0.9884 -0.1940 1
-0.0800 -1.5736 -1.2616 0.3194 2
-0.0800 -1.6946 -1.3581 -0.1900 2
-0.0800 -2.2416 -1.7958 0.5583 70
-0.0800 -2.1092 -1.6892 -0.1416 1
-0.0800 -2.2393 -1.7928 0.6623 70
-0.0800 -2.0434 -1.6359 -0.0457 1
-0.0800 -2.1825 -1.7467 0.7490 55
-0.0800 -2.2226 -1.7737 0.0496 8
-0.0800 -2.2611 -1.8031 0.1516 81
-0.0800 -0.7875 -0.6278 -0.1958 2
-0.0800 -2.2438 -1.7880 0.2510 54
-0.0800 -0.9084 -0.7239 -0.1840 1
-0.0800 -1.5822 -1.2603 0.2484 4
-0.0800 -1.2019 -0.9571 -0.1887 1
-0.0800 -1.5934 -1.2684 0.3226 2
-0.0800 -1.6978 -1.3510 -0.1898 2
-0.0800 -2.2475 -1.7884 0.5583 72
-0.0800 -2.0679 -1.6449 -0.1385 1
-0.0800 -2.2422 -1.7829 0.6614 67
-0.0800 -2.0491 -1.6288 -0.0457 1
-0.0800 -2.1841 -1.7354 0.7475 56
-0.0800 -2.2116 -1.7522 0.0493 23
-0.0800 -0.7241 -0.5735 -0.2133 4
-0.0800 -2.2517 -1.7828 0.1505 92
-0.0800 -0.7865 -0.6227 -0.1950 2
-0.0800 -2.2513 -1.7818 0.2512 64
-0.0800 -0.9171 -0.7256 -0.1852 1
-0.0800 -1.5944 -1.2610 0.2496 4
-0.0800 -1.2115 -0.9578 -0.1896 1
-0.0800 -1.6071 -1.2702 0.3244 2
-0.0800 -1.7041 -1.3463 -0.1900 2
-0.0800 -2.2445 -1.7732 0.5560 72
-0.0800 -2.0423 -1.6129 -0.1364 1
-0.0800 -2.2362 -1.7654 0.6578 67
-0.0800 -2.0548 -1.6216 -0.0457 1
-0.0800 -2.1916 -1.7290 0.7480 55
-0.0800 -0.7261 -0.5710 -0.2133 4
-0.0800 -2.2470 -1.7663 0.1498 74
-0.0800 -0.8073 -0.6344 -0.1996 2
-0.0800 -2.2531 -1.7698 0.2507 70
-0.0800 -0.9198 -0.7222 -0.1852 1
-0.0800 -1.6081 -1.2627 0.2511 4
-0.0800 -1.2242 -0.9609 -0.1911 2
-0.0800 -1.5898 -1.2475 0.3201 2
-0.0800 -1.7213 -1.3502 -0.1914 2
-0.0800 -2.2525 -1.7662 0.5564 66
-0.0800 -2.0797 -1.6301 -0.1385 1
-0.0800 -2.2334 -1.7500 0.6551 67
-0.0800 -2.0242 -1.5861 -0.0449 2
-0.0800 -2.1824 -1.7094 0.7428 55
-0.0800 -2.2634 -1.7671 0.0501 77
-0.0800 -0.7497 -0.5851 -0.2196 3
-0.0800 -2.2421 -1.7498 0.1491 68
-0.0800 -0.8065 -0.6292 -0.1988 2
-0.0800 -2.2404 -1.7472 0.2486 70
-0.0800 -0.9285 -0.7239 -0.1865 1
-0.0800 -1.6237 -1.2654 0.2528 4
-0.0800 -1.2215 -0.9516 -0.1901 2
-0.0800 -1.7119 -1.3331 -0.1898 2
-0.0800 -2.2571 -1.7571 0.5560 70
-0.0800 -2.0916 -1.6277 -0.1389 1
-0.0800 -2.2395 -1.7422 0.6551 65
-0.0800 -2.0250 -1.5753 -0.0448 28
-0.0800 -2.1792 -1.6947 0.7397 54
-0.0800 -2.2456 -1.7412 0.0496 70
-0.0800 -0.7670 -0.5945 -0.2241 2
-0.0800 -2.2450 -1.7395 0.1488 68
-0.0800 -0.7869 -0.6095 -0.1935 2
-0.0800 -2.2402 -1.7345 0.2479 68
-0.0800 -0.8997 -0.6966 -0.1802 2
-0.0800 -1.6295 -1.2612 0.2530 5
-0.0800 -1.2309 -0.9524 -0.1911 2
-0.0800 -1.7291 -1.3369 -0.1912 2
-0.0800 -2.2474 -1.7376 0.5522 69
-0.0800 -2.0907 -1.6159 -0.1385 1
-0.0800 -2.2422 -1.7324 0.6542 67
-0.0800 -2.0289 -1.5670 -0.0447 24
-0.0800 -2.1760 -1.6800 0.7366 54
-0.0800 -2.2469 -1.7297 0.0495 68
-0.0800 -0.7876 -0.6061 -0.2295 2
-0.0800 -2.2416 -1.7244 0.1482 68
-0.0800 -0.7952 -0.6117 -0.1950 2
-0.0800 -2.2491 -1.7295 0.2482 68
-0.0800 -0.9240 -0.7103 -0.1846 2
-0.0800 -1.6386 -1.2591 0.2537 4
-0.0800 -1.2248 -0.9408 -0.1896 2
-0.0800 -2.2514 -1.7288 0.4496 58
-0.0800 -1.7272 -1.3263 -0.1905 2
-0.0800 -2.2504 -1.7274 0.5514 70
-0.0800 -2.0361 -1.5624 -0.1345 1
-0.0800 -2.2482 -1.7245 0.6542 67
-0.0800 -2.0360 -1.5611 -0.0448 34
-0.0800 -2.1803 -1.6712 0.7361 56
-0.0800 -2.2561 -1.7243 0.0496 68
-0.0800 -0.7092 -0.5418 -0.2061 4
-0.0800 -2.2349 -1.7069 0.1474 68
-0.0800 -0.8067 -0.6161 -0.1973 2
-0.0800 -2.2519 -1.7192 0.2479 68
-0.0800 -0.9265 -0.7071 -0.1846 2
-0.0800 -1.2186 -0.9293 -0.1882 2
-0.0800 -2.2559 -1.7198 0.4493 71
-0.0800 -1.7397 -1.3263 -0.1914 2
-0.0800 -2.2548 -1.7183 0.5511 73
-0.0800 -2.0702 -1.5770 -0.1364 1
-0.0800 -2.2418 -1.7072 0.6506 68
-0.0800 -2.0160 -1.5346 -0.0442 23
-0.0800 -2.1892 -1.6659 0.7371 56
-0.0800 -2.2589 -1.7140 0.0495 72
-0.0800 -0.7732 -0.5865 -0.2241 2
-0.0800 -2.2408 -1.6990 0.1474 70
-0.0800 -0.8244 -0.6251 -0.2011 2
-0.0800 -2.2484 -1.7041 0.2468 66
-0.0800 -0.9415 -0.7134 -0.1871 1
-0.0800 -1.2171 -0.9215 -0.1874 2
-0.0800 -2.2398 -1.6952 0.4449 72
-0.0800 -1.7317 -1.3106 -0.1900 2
-0.0800 -2.2608 -1.7105 0.5511 73
-0.0800 -2.0916 -1.5819 -0.1374 1
-0.0800 -2.2447 -1.6970 0.6497 68
-0.0800 -2.0181 -1.5252 -0.0442 33
-0.0800 -2.1904 -1.6548 0.7356 55
-0.0800 -2.2617 -1.7037 0.0494 70
-0.0800 -0.7597 -0.5721 -0.2196 3
-0.0800 -2.2404 -1.6864 0.1470 72
-0.0800 -0.8203 -0.6175 -0.1996 2
-0.0800 -2.2384 -1.6843 0.2451 68
-0.0800 -0.9377 -0.7053 -0.1858 2
-0.0800 -2.2593 -1.6988 0.3471 76
-0.0800 -1.2425 -0.9339 -0.1908 2
-0.0800 -2.2331 -1.6779 0.4424 70
-0.0800 -1.7283 -1.2986 -0.1891 2
-0.0800 -2.2636 -1.7002 0.5503 73
-0.0800 -2.1003 -1.5769 -0.1376 1
-0.0800 -2.2459 -1.6857 0.6483 74
-0.0800 -2.0202 -1.5157 -0.0441 14
-0.0800 -2.1776 -1.6332 0.7294 55
-0.0800 -2.2532 -1.6850 0.0491 76
-0.0800 -0.7398 -0.5531 -0.2133 4
-0.0800 -2.2431 -1.6762 0.1468 72
-0.0800 -0.8319 -0.6217 -0.2019 2
-0.0800 -2.2427 -1.6753 0.2449 60
-0.0800 -0.9433 -0.7044 -0.1865 2
-0.0800 -2.2557 -1.6838 0.3456 61
-0.0800 -1.2473 -0.9307 -0.1911 2
-0.0800 -2.2453 -1.6748 0.4436 72
-0.0800 -1.7408 -1.2985 -0.1900 1
-0.0800 -2.2522 -1.6794 0.5461 72
-0.0800 -2.0385 -1.5195 -0.1332 1
-0.0800 -2.2549 -1.6801 0.6492 71
-0.0800 -2.1802 -1.6233 0.7283 54
-0.0800 -2.2494 -1.6700 0.0489 76
-0.0800 -0.7637 -0.5667 -0.2196 3
-0.0800 -2.2457 -1.6660 0.1465 68
-0.0800 -0.8089 -0.6001 -0.1958 2
-0.0800 -2.2405 -1.6615 0.2440 64
-0.0800 -0.9458 -0.7011 -0.1865 1
-0.0800 -2.2488 -1.6665 0.3437 57
-0.0800 -1.2410 -0.9193 -0.1896 2
-0.0800 -2.2543 -1.6693 0.4443 72
-0.0800 -1.7341 -1.2841 -0.1888 2
-0.0800 -2.2518 -1.6668 0.5446 72
-0.0800 -2.0759 -1.5361 -0.1353 1
-0.0800 -2.2545 -1.6676 0.6474 74
-0.0800 -2.0726 -1.5325 -0.0450 1
-0.0800 -2.1858 -1.6157 0.7283 53
-0.0800 -2.2520 -1.6597 0.0488 76
-0.0800 -0.6087 -0.4485 -0.1746 7
-0.0800 -2.2351 -1.6467 0.1455 74
-0.0800 -0.8268 -0.6089 -0.1996 2
-0.0800 -2.2495 -1.6560 0.2444 68
-0.0800 -0.9355 -0.6885 -0.1840 2
-0.0800 -2.2466 -1.6527 0.3425 61
-0.0800 -1.2506 -0.9197 -0.1906 2
-0.0800 -2.2502 -1.6548 0.4424 64
-0.0800 -1.7466 -1.2839 -0.1897 2
-0.0800 -2.2592 -1.6601 0.5450 77
-0.0800 -2.0684 -1.5194 -0.1345 1
-0.0800 -2.2446 -1.6482 0.6429 74
-0.0800 -2.0615 -1.5138 -0.0446 1
-0.0800 -2.1881 -1.6061 0.7273 54
-0.0800 -2.2527 -1.6487 0.0487 74
-0.0800 -2.2376 -1.6365 0.1453 68
-0.0800 -0.8384 -0.6129 -0.2019 2
-0.0800 -2.2488 -1.6435 0.2437 62
-0.0800 -0.9665 -0.7063 -0.1896 2
-0.0800 -2.2521 -1.6453 0.3425 61
-0.0800 -1.2280 -0.8968 -0.1867 2
-0.0800 -2.2400 -1.6353 0.4393 68
-0.0800 -1.7607 -1.2849 -0.1907 2
-0.0800 -2.2646 -1.6526 0.5450 77
-0.0800 -2.1025 -1.5337 -0.1364 1
-0.0800 -2.2438 -1.6362 0.6411 76
-0.0800 -2.0054 -1.4618 -0.0433 1
-0.0800 -2.1921 -1.5973 0.7268 52
-0.0800 -2.2584 -1.6408 0.0487 68
-0.0800 -2.2401 -1.6263 0.1451 74
-0.0800 -0.8309 -0.6032 -0.1996 2
-0.0800 -2.2414 -1.6267 0.2423 66
-0.0800 -0.9626 -0.6983 -0.1883 2
-0.0800 -2.2578 -1.6374 0.3425 59
-0.0800 -1.2408 -0.8995 -0.1882 2
-0.0800 -2.2457 -1.6274 0.4393 66
-0.0800 -1.7456 -1.2650 -0.1886 2
-0.0800 -2.2609 -1.6378 0.5427 77
-0.0800 -2.0658 -1.4959 -0.1337 1
-0.0800 -2.2494 -1.6283 0.6411 74
-0.0800 -2.0591 -1.4900 -0.0444 1
-0.0800 -2.1836 -1.5795 0.7221 49
-0.0800 -2.2366 -1.6131 0.0481 33
-0.0800 -0.8504 -0.6131 -0.2420 2
-0.0800 -2.2393 -1.6138 0.1447 72
-0.0800 -0.8330 -0.6003 -0.1996 2
-0.0800 -2.2454 -1.6177 0.2421 58
-0.0800 -0.9361 -0.6742 -0.1827 2
-0.0800 -2.2571 -1.6249 0.3415 61
-0.0800 -1.2471 -0.8975 -0.1887 2
-0.0800 -2.2482 -1.6173 0.4386 64
-0.0800 -1.7532 -1.2612 -0.1890 2
-0.0800 -2.2602 -1.6253 0.5411 80
-0.0800 -2.0483 -1.4724 -0.1322 1
-0.0800 -2.2551 -1.6205 0.6411 73
-0.0800 -2.0610 -1.4804 -0.0443 1
-0.0800 -2.1938 -1.5752 0.7237 46
-0.0800 -2.0520 -1.4691 0.0440 18
-0.0800 -2.2400 -1.6025 0.1443 76
-0.0800 -0.8447 -0.6043 -0.2019 2
-0.0800 -2.2462 -1.6063 0.2416 64
-0.0800 -0.9449 -0.6755 -0.1840 2
-0.0800 -2.2434 -1.6031 0.3386 66
-0.0800 -1.2567 -0.8977 -0.1896 2
-0.0800 -2.2570 -1.6117 0.4393 66
-0.0800 -1.7576 -1.2551 -0.1890 2
-0.0800 -2.2531 -1.6083 0.5381 77
-0.0800 -2.0371 -1.4536 -0.1312 1
-0.0800 -2.2544 -1.6081 0.6393 76
-0.0800 -2.0336 -1.4500 -0.0436 1
-0.0800 -2.1930 -1.5631 0.7216 38
-0.0800 -2.0603 -1.4642 0.0441 35
-0.0800 -2.2309 -1.5843 0.1434 72
-0.0800 -0.8372 -0.5945 -0.1996 2
-0.0800 -2.2485 -1.5962 0.2412 64
-0.0800 -0.9537 -0.6768 -0.1852 2
-0.0800 -2.2457 -1.5930 0.3381 66
-0.0800 -1.2501 -0.8864 -0.1882 2
-0.0800 -2.2562 -1.5993 0.4380 64
-0.0800 -1.7766 -1.2593 -0.1905 2
-0.0800 -2.2587 -1.6004 0.5381 80
-0.0800 -2.0422 -1.4465 -0.1312 1
-0.0800 -2.2441 -1.5889 0.6348 76
-0.0800 -2.0746 -1.4683 -0.0444 1
-0.0800 -2.2016 -1.5576 0.7226 34
-0.0800 -2.0589 -1.4524 0.0440 37
-0.0800 -2.2267 -1.5696 0.1428 70
-0.0800 -0.8328 -0.5871 -0.1981 2
-0.0800 -2.2541 -1.5883 0.2412 62
-0.0800 -0.9657 -0.6803 -0.1871 2
-0.0800 -2.2448 -1.5806 0.3371 66
-0.0800 -1.2678 -0.8923 -0.1904 2
-0.0800 -2.2489 -1.5823 0.4355 68
-0.0800 -1.7663 -1.2428 -0.1890 1
-0.0800 -2.2546 -1.5857 0.5358 73
-0.0800 -2.0342 -1.4302 -0.1303 1
-0.0800 -2.2433 -1.5766 0.6330 78
-0.0800 -2.0600 -1.4473 -0.0439 1
-0.0800 -2.2133 -1.5544 0.7247 33
-0.0800 -2.0574 -1.4406 0.0438 29
-0.0800 -2.2289 -1.5595 0.1426 70
-0.0800 -0.8349 -0.5841 -0.1981 2
-0.0800 -2.2531 -1.5759 0.2405 66
-0.0800 -0.9649 -0.6746 -0.1865 2
-0.0800 -2.2568 -1.5773 0.3381 66
-0.0800 -1.2530 -0.8754 -0.1877 2
-0.0800 -2.2511 -1.5722 0.4349 68
-0.0800 -1.7788 -1.2423 -0.1898 2
-0.0800 -2.2537 -1.5734 0.5343 82
-0.0800 -2.0522 -1.4322 -0.1312 1
-0.0800 -2.2424 -1.5643 0.6312 78
-0.0800 -2.0848 -1.4538 -0.0444 1
-0.0800 -2.2124 -1.5422 0.7226 32
-0.0800 -2.2449 -0.5170 0.0402 83
-0.0800 -0.9533 -0.2194 -0.2259 2
-0.0800 -2.2423 -0.5156 0.1206 93
-0.0800 -1.0121 -0.2327 -0.2019 2
-0.0800 -2.2447 -0.5158 0.2015 84
-0.0800 -1.1359 -0.2608 -0.1846 2
-0.0800 -2.2483 -0.5158 0.2832 81
-0.0800 -1.5731 -0.3606 -0.1982 2
-0.0800 -2.1835 -0.5001 0.3548 36
-0.0800 -1.8081 -0.4141 -0.1623 31
-0.0800 -2.1855 -0.5002 0.4358 34
-0.0800 -1.8341 -0.4194 -0.0986 38
-0.0800 -2.2379 -0.5113 0.5300 91
-0.0800 -1.8579 -0.4242 -0.0333 73
-0.0800 -2.0228 -0.4614 0.5559 4
-0.0800 -0.7498 -0.1701 -0.2060 6
-0.0800 -2.2447 -0.5088 0.0402 89
-0.0800 -0.8705 -0.1971 -0.2061 4
-0.0800 -2.2383 -0.5065 0.1203 88
-0.0800 -0.9938 -0.2249 -0.1981 2
-0.0800 -2.2426 -0.5070 0.2012 84
-0.0800 -1.1445 -0.2586 -0.1858 2
-0.0800 -2.2326 -0.5040 0.2810 89
-0.0800 -1.5918 -0.3590 -0.2004 2
-0.0800 -2.1891 -0.4933 0.3554 34
-0.0800 -1.8154 -0.4091 -0.1628 35
-0.0800 -2.1834 -0.4917 0.4350 34
-0.0800 -1.8277 -0.4112 -0.0982 37
-0.0800 -2.2416 -0.5039 0.5304 93
-0.0800 -1.8672 -0.4194 -0.0334 70
-0.0800 -2.0339 -0.4565 0.5585 5
-0.0800 -2.2582 -0.5035 0.0404 89
-0.0800 -0.9549 -0.2127 -0.2259 2
-0.0800 -2.2303 -0.4965 0.1197 90
-0.0800 -0.9869 -0.2197 -0.1965 2
-0.0800 -2.2541 -0.5014 0.2020 81
-0.0800 -1.1339 -0.2520 -0.1840 2
-0.0800 -2.2383 -0.4970 0.2815 87
-0.0800 -1.5814 -0.3509 -0.1989 2
-0.0800 -2.1870 -0.4848 0.3548 35
-0.0800 -1.8265 -0.4049 -0.1637 36
-0.0800 -2.1851 -0.4840 0.4350 34
-0.0800 -1.8292 -0.4048 -0.0982 38
-0.0800 -2.2338 -0.4940 0.5282 91
-0.0800 -1.8647 -0.4120 -0.0333 58
-0.0800 -2.0411 -0.4506 0.5601 4
-0.0800 -0.7510 -0.1648 -0.2060 6
-0.0800 -2.2560 -0.4948 0.0403 87
-0.0800 -0.9289 -0.2036 -0.2196 3
-0.0800 -2.2242 -0.4870 0.1193 90
-0.0800 -0.9647 -0.2112 -0.1920 2
-0.0800 -2.2500 -0.4922 0.2015 84
-0.0800 -1.1502 -0.2514 -0.1865 2
-0.0800 -2.2439 -0.4901 0.2820 89
-0.0800 -1.5904 -0.3470 -0.1999 2
-0.0800 -2.1771 -0.4747 0.3529 35
-0.0800 -1.8143 -0.3956 -0.1625 38
-0.0800 -2.1907 -0.4772 0.4358 34
-0.0800 -1.8306 -0.3985 -0.0982 38
-0.0800 -2.2318 -0.4854 0.5273 91
-0.0800 -1.8583 -0.4038 -0.0332 61
