-0.1400 1.2691 -0.2306 -0.2043 3
-0.1400 1.5527 -0.2824 0.1938 96
-0.1400 1.5194 -0.2767 -0.1896 67
-0.1400 1.5450 -0.2816 0.2487 100
-0.1400 1.5210 -0.2772 -0.1353 81
-0.1400 1.5548 -0.2837 0.3072 99
-0.1400 1.5463 -0.2824 -0.0824 100
-0.1400 3.6365 -0.6648 0.8535 19
-0.1400 1.5087 -0.2761 -0.0268 100
-0.1400 3.6390 -0.6666 0.9913 18
-0.1400 1.5456 -0.2854 0.0274 87
-0.1400 0.9294 -0.1718 -0.2182 3
-0.1400 1.5181 -0.2808 0.0809 100
-0.1400 1.0386 -0.1921 -0.2053 2
-0.1400 1.5242 -0.2822 0.1356 85
-0.1400 1.2722 -0.2358 -0.2049 3
-0.1400 1.5536 -0.2882 0.1940 92
-0.1400 1.5223 -0.2827 -0.1901 18
-0.1400 1.5440 -0.2870 0.2487 100
-0.1400 1.5220 -0.2829 -0.1354 81
-0.1400 1.5499 -0.2884 0.3064 94
-0.1400 1.5472 -0.2882 -0.0825 97
-0.1400 3.6514 -0.6807 0.8575 19
-0.1400 1.5117 -0.2821 -0.0268 100
-0.1400 3.6366 -0.6793 0.9913 17
-0.1400 1.5309 -0.2882 0.0272 97
-0.1400 0.9556 -0.1800 -0.2245 2
-0.1400 1.5270 -0.2880 0.0814 100
-0.1400 1.0109 -0.1907 -0.2000 2
-0.1400 1.5310 -0.2890 0.1363 83
-0.1400 1.2364 -0.2336 -0.1993 3
-0.1400 1.5468 -0.2925 0.1933 87
-0.1400 1.5272 -0.2891 -0.1908 3
-0.1400 1.5391 -0.2916 0.2481 100
-0.1400 1.5191 -0.2879 -0.1353 85
-0.1400 1.5277 -0.2898 0.3022 47
-0.1400 1.5482 -0.2939 -0.0826 100
-0.1400 3.6509 -0.6938 0.8580 16
-0.1400 1.5185 -0.2889 -0.0270 100
-0.1400 3.6361 -0.6923 0.9918 15
-0.1400 1.5397 -0.2954 0.0274 100
-0.1400 0.8631 -0.1657 -0.2029 5
-0.1400 1.5279 -0.2937 0.0815 100
-0.1400 1.0257 -0.1971 -0.2030 2
-0.1400 1.5378 -0.2959 0.1370 69
-0.1400 1.2104 -0.2331 -0.1952 2
-0.1400 1.5321 -0.2953 0.1916 61
-0.1400 1.5184 -0.2929 -0.1899 2
-0.1400 1.5419 -0.2978 0.2487 75
-0.1400 1.5220 -0.2939 -0.1356 71
-0.1400 3.5294 -0.6822 0.6987 55
-0.1400 1.5413 -0.2982 -0.0823 92
-0.1400 3.6523 -0.7073 0.8589 16
-0.1400 1.5234 -0.2953 -0.0271 100
-0.1400 3.6337 -0.7050 0.9918 15
-0.1400 1.5406 -0.3011 0.0274 34
-0.1400 0.8931 -0.1747 -0.2101 4
-0.1400 3.5222 -0.6897 0.1881 35
-0.1400 1.0096 -0.1977 -0.2000 2
-0.1400 3.5311 -0.6921 0.3148 56
-0.1400 1.1786 -0.2312 -0.1902 2
-0.1400 3.5315 -0.6935 0.4419 59
-0.1400 1.4979 -0.2944 -0.1874 2
-0.1400 3.5334 -0.6951 0.5704 49
-0.1400 3.5308 -0.6953 0.6995 77
-0.1400 3.6383 -0.7178 0.8562 16
-0.1400 1.5086 -0.2979 -0.0268 24
-0.1400 3.6426 -0.7199 0.9949 15
-0.1400 0.8810 -0.1756 -0.2074 4
-0.1400 3.5237 -0.7028 0.1883 73
-0.1400 0.9627 -0.1920 -0.1908 2
-0.1400 3.5384 -0.7064 0.3157 80
-0.1400 1.1661 -0.2330 -0.1883 2
-0.1400 3.5349 -0.7070 0.4426 60
-0.1400 1.4988 -0.3000 -0.1877 2
-0.1400 3.5271 -0.7067 0.5697 69
-0.1400 2.0845 -0.4176 -0.1860 2
-0.1400 3.5476 -0.7115 0.7033 79
-0.1400 3.6282 -0.7289 0.8544 16
-0.1400 3.6381 -0.7323 0.9944 16
-0.1400 3.3317 -0.6754 0.0593 2
-0.1400 0.9263 -0.1879 -0.2182 3
-0.1400 3.5272 -0.7157 0.1886 65
-0.1400 0.9774 -0.1985 -0.1939 2
-0.1400 3.5242 -0.7164 0.3146 73
-0.1400 1.1459 -0.2331 -0.1852 2
-0.1400 3.5324 -0.7193 0.4426 60
-0.1400 1.5211 -0.3100 -0.1906 2
-0.1400 3.5286 -0.7192 0.5704 72
-0.1400 2.0908 -0.4265 -0.1867 3
-0.1400 3.5451 -0.7238 0.7033 77
-0.1400 3.4460 -0.7042 -0.1843 2
-0.1400 3.6390 -0.7443 0.8575 19
-0.1400 3.2992 -0.6748 -0.0588 2
-0.1400 3.6281 -0.7428 0.9923 18
-0.1400 3.3020 -0.6808 0.0588 2
-0.1400 0.8913 -0.1839 -0.2101 4
-0.1400 3.5305 -0.7292 0.1889 68
-0.1400 0.9921 -0.2051 -0.1969 2
-0.1400 3.5139 -0.7270 0.3139 73
-0.1400 1.1568 -0.2393 -0.1871 2
-0.1400 3.5378 -0.7326 0.4436 63
-0.1400 1.5200 -0.3151 -0.1906 2
-0.1400 3.5299 -0.7323 0.5710 67
-0.1400 2.0776 -0.4314 -0.1856 2
-0.1400 3.5389 -0.7348 0.7026 77
-0.1400 3.6403 -0.7572 0.8584 19
-0.1400 3.4182 -0.7116 -0.0609 1
-0.1400 3.6255 -0.7554 0.9923 18
-0.1400 3.3466 -0.7022 0.0597 1
-0.1400 0.8830 -0.1854 -0.2083 4
-0.1400 3.5299 -0.7419 0.1890 65
-0.1400 0.9875 -0.2076 -0.1962 2
-0.1400 3.5231 -0.7412 0.3150 75
-0.1400 1.1327 -0.2385 -0.1833 2
-0.1400 3.5236 -0.7425 0.4421 63
-0.1400 1.4995 -0.3163 -0.1882 2
-0.1400 3.5389 -0.7471 0.5729 67
-0.1400 2.1034 -0.4440 -0.1881 2
-0.1400 3.5363 -0.7471 0.7026 77
-0.1400 3.4977 -0.7396 -0.1874 37
-0.1400 3.6643 -0.7755 0.8647 16
-0.1400 3.6512 -0.7741 1.0001 16
-0.1400 0.7463 -0.1592 -0.2045 7
-0.1400 3.5280 -0.7531 0.0630 4
-0.1400 0.8709 -0.1861 -0.2056 4
-0.1400 3.5254 -0.7538 0.1889 62
-0.1400 0.9983 -0.2135 -0.1984 2
-0.1400 3.5322 -0.7560 0.3160 75
-0.1400 1.1512 -0.2466 -0.1865 2
-0.1400 3.5365 -0.7582 0.4441 63
-0.1400 1.5100 -0.3240 -0.1896 2
-0.1400 3.5324 -0.7586 0.5722 69
-0.1400 2.0921 -0.4493 -0.1872 2
-0.1400 3.5452 -0.7620 0.7048 79
-0.1400 3.5088 -0.7548 -0.1881 20
-0.1400 3.6463 -0.7850 0.8611 16
-0.1400 3.5304 -0.7607 -0.0630 61
-0.1400 3.6485 -0.7868 1.0001 15
-0.1400 0.7457 -0.1618 -0.2045 7
-0.1400 3.5449 -0.7697 0.0633 6
-0.1400 0.9388 -0.2040 -0.2218 3
-0.1400 3.5189 -0.7647 0.1887 62
-0.1400 0.9976 -0.2170 -0.1984 2
-0.1400 3.5276 -0.7679 0.3159 80
-0.1400 1.1503 -0.2506 -0.1865 2
-0.1400 3.5338 -0.7705 0.4441 64
-0.1400 1.5051 -0.3282 -0.1891 1
-0.1400 3.5222 -0.7686 0.5710 69
-0.1400 2.0983 -0.4583 -0.1879 2
-0.1400 3.5425 -0.7743 0.7048 83
-0.1400 3.5120 -0.7683 -0.1884 7
-0.1400 3.6456 -0.7975 0.8616 16
-0.1400 3.5259 -0.7720 -0.0630 41
-0.1400 3.6477 -0.7993 1.0006 16
-0.1400 0.7452 -0.1643 -0.2045 7
-0.1400 0.9001 -0.1987 -0.2128 4
-0.1400 3.5281 -0.7789 0.1894 62
-0.1400 0.9892 -0.2186 -0.1969 2
-0.1400 3.5270 -0.7800 0.3160 73
-0.1400 1.1495 -0.2544 -0.1865 2
-0.1400 3.5351 -0.7831 0.4446 60
-0.1400 1.4962 -0.3314 -0.1882 1
-0.1400 3.5235 -0.7811 0.5716 72
-0.1400 2.0851 -0.4626 -0.1869 2
-0.1400 3.5476 -0.7878 0.7064 83
-0.1400 3.4997 -0.7778 -0.1879 3
-0.1400 3.6525 -0.8117 0.8638 17
-0.1400 3.5136 -0.7815 -0.0628 15
-0.1400 3.6375 -0.8097 0.9985 16
-0.1400 0.7446 -0.1667 -0.2045 7
-0.1400 3.5299 -0.7910 0.0631 60
-0.1400 0.9070 -0.2034 -0.2146 3
-0.1400 3.5273 -0.7917 0.1895 59
-0.1400 0.9961 -0.2236 -0.1984 2
-0.1400 3.5244 -0.7917 0.3160 73
-0.1400 1.1332 -0.2548 -0.1840 2
-0.1400 3.5364 -0.7957 0.4451 63
-0.1400 1.4796 -0.3332 -0.1862 2
-0.1400 3.5323 -0.7960 0.5735 72
-0.1400 2.0972 -0.4726 -0.1881 2
-0.1400 3.5334 -0.7969 0.7041 86
-0.1400 3.4971 -0.7894 -0.1879 2
-0.1400 3.6572 -0.8262 0.8656 17
-0.1400 3.5245 -0.7969 -0.0631 5
-0.1400 3.6497 -0.8258 1.0027 17
-0.1400 3.5135 -0.8002 0.0629 52
-0.1400 0.8265 -0.1884 -0.1957 5
-0.1400 3.5245 -0.8040 0.1895 59
-0.1400 0.9838 -0.2244 -0.1962 2
-0.1400 3.5294 -0.8057 0.3167 73
-0.1400 1.1323 -0.2587 -0.1840 2
-0.1400 3.5297 -0.8071 0.4446 59
-0.1400 1.5132 -0.3463 -0.1906 1
-0.1400 3.5372 -0.8101 0.5747 72
-0.1400 2.0819 -0.4768 -0.1869 2
-0.1400 3.5421 -0.8119 0.7064 86
-0.1400 3.4749 -0.7971 -0.1868 1
-0.1400 3.6695 -0.8425 0.8692 16
-0.1400 3.5236 -0.8096 -0.0631 2
-0.1400 3.6581 -0.8412 1.0058 16
-0.1400 0.7435 -0.1719 -0.2045 7
-0.1400 3.5263 -0.8160 0.0632 61
-0.1400 0.8486 -0.1965 -0.2011 5
-0.1400 3.5178 -0.8154 0.1892 59
-0.1400 1.0022 -0.2323 -0.2000 2
-0.1400 3.5382 -0.8208 0.3178 72
-0.1400 1.1391 -0.2645 -0.1852 2
-0.1400 3.5269 -0.8194 0.4446 61
-0.1400 1.5043 -0.3498 -0.1896 2
-0.1400 3.5420 -0.8243 0.5760 69
-0.1400 2.1074 -0.4904 -0.1893 1
-0.1400 3.5393 -0.8243 0.7064 79
-0.1400 3.4915 -0.8138 -0.1879 1
-0.1400 3.6608 -0.8539 0.8679 16
-0.1400 3.5461 -0.8278 -0.0636 1
-0.1400 3.6627 -0.8557 1.0078 16
-0.1400 3.5409 -0.8325 0.0635 70
-0.1400 0.9010 -0.2120 -0.2137 3
-0.1400 3.5188 -0.8286 0.1895 59
-0.1400 0.9746 -0.2295 -0.1946 2
-0.1400 3.5392 -0.8340 0.3181 72
-0.1400 1.1382 -0.2684 -0.1852 2
-0.1400 3.5356 -0.8345 0.4460 61
-0.1400 1.4799 -0.3496 -0.1867 2
-0.1400 3.5237 -0.8330 0.5735 74
-0.1400 2.0960 -0.4955 -0.1884 1
-0.1400 3.5364 -0.8366 0.7064 86
-0.1400 3.4614 -0.8195 -0.1864 1
-0.1400 3.6503 -0.8649 0.8661 16
-0.1400 3.5315 -0.8374 -0.0634 2
-0.1400 3.6503 -0.8663 1.0053 16
-0.1400 3.5380 -0.8448 0.0635 68
-0.1400 0.9193 -0.2197 -0.2182 3
-0.1400 3.5295 -0.8441 0.1902 62
-0.1400 0.9891 -0.2365 -0.1977 2
-0.1400 3.5227 -0.8431 0.3169 77
-0.1400 1.1449 -0.2742 -0.1865 2
-0.1400 3.5326 -0.8468 0.4460 61
-0.1400 1.4864 -0.3566 -0.1877 2
-0.1400 3.5285 -0.8471 0.5747 69
-0.1400 2.1407 -0.5143 -0.1926 1
-0.1400 3.5411 -0.8508 0.7079 81
-0.1400 3.4780 -0.8363 -0.1875 1
-0.1400 3.6567 -0.8799 0.8683 15
-0.1400 3.5227 -0.8483 -0.0632 3
-0.1400 3.6454 -0.8785 1.0047 17
-0.1400 0.7416 -0.1798 -0.2045 7
-0.1400 3.5272 -0.8553 0.0634 72
-0.1400 0.8730 -0.2119 -0.2074 4
-0.1400 3.5304 -0.8574 0.1904 62
-0.1400 0.9768 -0.2374 -0.1954 2
-0.1400 3.5215 -0.8565 0.3171 75
-0.1400 1.1362 -0.2766 -0.1852 2
-0.1400 3.5335 -0.8601 0.4465 63
-0.1400 1.4928 -0.3636 -0.1887 1
-0.1400 3.5370 -0.8622 0.5766 69
-0.1400 3.5341 -0.8628 0.7071 81
-0.1400 3.4807 -0.8504 -0.1878 2
-0.1400 3.6610 -0.8952 0.8701 17
-0.1400 3.5256 -0.8621 -0.0634 12
-0.1400 3.6498 -0.8931 1.0068 17
-0.1400 3.5318 -0.8701 0.0635 72
-0.1400 0.8458 -0.2085 -0.2011 5
-0.1400 3.5293 -0.8702 0.1905 59
-0.1400 0.9988 -0.2464 -0.2000 2
-0.1400 3.5262 -0.8707 0.3178 71
-0.1400 1.1276 -0.2786 -0.1840 2
-0.1400 3.5265 -0.8721 0.4460 63
-0.1400 1.5146 -0.3748 -0.1916 2
-0.1400 3.5417 -0.8765 0.5779 72
-0.1400 3.5349 -0.8761 0.7079 88
-0.1400 3.4816 -0.8635 -0.1880 3
-0.1400 3.6654 -0.9098 0.8719 16
-0.1400 3.5264 -0.8753 -0.0634 30
-0.1400 3.6429 -0.9049 1.0058 17
-0.1400 3.5445 -0.8857 0.0638 70
-0.1400 0.8640 -0.2161 -0.2056 4
-0.1400 3.5166 -0.8800 0.1900 57
-0.1400 1.0094 -0.2528 -0.2023 2
-0.1400 3.5348 -0.8859 0.3188 73
-0.1400 1.1152 -0.2795 -0.1821 2
-0.1400 3.5274 -0.8847 0.4465 63
-0.1400 1.4787 -0.3711 -0.1872 1
-0.1400 3.5424 -0.8898 0.5785 74
-0.1400 2.1352 -0.5367 -0.1926 1
-0.1400 3.5415 -0.8902 0.7098 89
-0.1400 3.5000 -0.8804 -0.1891 10
-0.1400 3.6511 -0.9191 0.8692 15
-0.1400 3.5272 -0.8886 -0.0635 61
-0.1400 3.6491 -0.9200 1.0084 15
-0.1400 3.5413 -0.8981 0.0638 67
-0.1400 0.8217 -0.2085 -0.1957 5
-0.1400 3.5193 -0.8938 0.1903 59
-0.1400 1.0009 -0.2542 -0.2007 2
-0.1400 3.5318 -0.8976 0.3188 72
-0.1400 1.1333 -0.2883 -0.1852 2
-0.1400 3.5320 -0.8990 0.4475 70
-0.1400 1.4851 -0.3783 -0.1882 1
-0.1400 3.5278 -0.8992 0.5766 72
-0.1400 2.1333 -0.5442 -0.1926 1
-0.1400 3.5403 -0.9031 0.7102 92
-0.1400 3.5008 -0.8936 -0.1894 16
-0.1400 3.6554 -0.9338 0.8710 13
-0.1400 3.5164 -0.8989 -0.0634 76
-0.1400 3.6421 -0.9317 1.0073 15
-0.1400 3.5421 -0.9114 0.0638 67
-0.1400 0.8436 -0.2172 -0.2011 5
-0.1400 3.5200 -0.9071 0.1905 59
-0.1400 0.9809 -0.2530 -0.1969 2
-0.1400 3.5169 -0.9076 0.3178 70
-0.1400 1.1132 -0.2875 -0.1821 2
-0.1400 3.5404 -0.9143 0.4490 70
-0.1400 1.5107 -0.3904 -0.1916 1
-0.1400 3.5323 -0.9135 0.5779 72
-0.1400 2.0928 -0.5416 -0.1891 1
-0.1400 3.5445 -0.9180 0.7117 96
-0.1400 3.4956 -0.9060 -0.1892 20
-0.1400 3.6482 -0.9462 0.8701 16
-0.1400 3.5113 -0.9107 -0.0633 70
-0.1400 3.6313 -0.9425 1.0053 16
-0.1400 3.5348 -0.9234 0.0638 67
-0.1400 0.8616 -0.2252 -0.2056 4
-0.1400 3.5226 -0.9209 0.1908 57
-0.1400 0.9991 -0.2614 -0.2007 2
-0.1400 3.5291 -0.9239 0.3192 75
-0.1400 1.1274 -0.2954 -0.1846 1
-0.1400 3.5332 -0.9263 0.4485 70
-0.1400 3.5329 -0.9268 0.5785 69
-0.1400 2.1294 -0.5590 -0.1926 1
-0.1400 3.5375 -0.9294 0.7110 92
-0.1400 3.4962 -0.9192 -0.1895 19
-0.1400 3.6469 -0.9588 0.8706 17
-0.1400 3.5216 -0.9265 -0.0636 78
-0.1400 3.6299 -0.9557 1.0058 17
-0.1400 0.7377 -0.1952 -0.2045 7
-0.1400 3.5317 -0.9351 0.0638 67
-0.1400 0.8458 -0.2241 -0.2020 5
-0.1400 3.5273 -0.9346 0.1912 62
-0.1400 0.9982 -0.2647 -0.2007 2
-0.1400 3.5299 -0.9366 0.3195 72
-0.1400 1.1455 -0.3042 -0.1877 1
-0.1400 3.5224 -0.9359 0.4475 66
-0.1400 3.5432 -0.9421 0.5807 66
-0.1400 3.5344 -0.9411 0.7110 92
-0.1400 3.4854 -0.9287 -0.1890 20
-0.1400 3.6531 -0.9734 0.8728 16
-0.1400 3.5224 -0.9392 -0.0636 81
-0.1400 3.6342 -0.9697 1.0078 17
-0.1400 0.7370 -0.1976 -0.2045 7
-0.1400 3.5402 -0.9499 0.0640 65
-0.1400 0.8488 -0.2279 -0.2029 5
-0.1400 3.5163 -0.9448 0.1908 62
-0.1400 0.9935 -0.2670 -0.2000 2
-0.1400 3.5268 -0.9483 0.3195 75
-0.1400 1.1178 -0.3008 -0.1833 1
-0.1400 3.5193 -0.9476 0.4475 70
-0.1400 3.5418 -0.9550 0.5810 69
-0.1400 3.5388 -0.9549 0.7125 96
-0.1400 3.4901 -0.9423 -0.1895 19
-0.1400 3.6422 -0.9841 0.8710 15
-0.1400 3.5268 -0.9536 -0.0638 78
-0.1400 3.6401 -0.9849 1.0104 15
-0.1400 3.5407 -0.9633 0.0641 65
-0.1400 0.9383 -0.2554 -0.2245 2
-0.1400 3.5207 -0.9592 0.1912 62
-0.1400 0.9812 -0.2673 -0.1977 2
-0.1400 3.5311 -0.9627 0.3202 71
-0.1400 1.1168 -0.3047 -0.1833 1
-0.1400 3.5313 -0.9641 0.4495 70
-0.1400 3.5232 -0.9632 0.5785 67
-0.1400 3.5412 -0.9688 0.7136 100
-0.1400 3.4848 -0.9540 -0.1894 18
-0.1400 3.6500 -0.9999 0.8737 13
-0.1400 3.5196 -0.9648 -0.0637 81
-0.1400 3.6366 -0.9976 1.0104 12
-0.1400 3.5412 -0.9767 0.0641 64
-0.1400 3.5192 -0.9720 0.1913 59
-0.1400 1.0295 -0.2843 -0.2076 2
-0.1400 3.5316 -0.9761 0.3206 70
-0.1400 3.5355 -0.9785 0.4504 70
-0.1400 3.5312 -0.9786 0.5804 69
-0.1400 3.5434 -0.9827 0.7148 99
-0.1400 3.4969 -0.9704 -0.1902 18
-0.1400 3.6540 -1.0147 0.8755 12
-0.1400 3.5162 -0.9771 -0.0637 78
-0.1400 3.6387 -1.0118 1.0120 11
-0.1400 3.5301 -0.9869 0.0640 65
-0.1400 3.5293 -0.9880 0.1921 62
-0.1400 3.5320 -0.9895 0.3209 75
-0.1400 3.5359 -0.9919 0.4509 68
-0.1400 3.5354 -0.9931 0.5816 67
-0.1400 3.5381 -0.9945 0.7144 100
-0.1400 3.4935 -0.9826 -0.1902 19
-0.1400 3.6354 -1.0232 0.8719 11
-0.1400 3.5166 -0.9905 -0.0638 76
-0.1400 3.6352 -1.0245 1.0120 11
-0.1400 3.5343 -1.0014 0.0641 64
-0.1400 3.5296 -1.0015 0.1923 62
-0.1400 3.5362 -1.0040 0.3216 68
-0.1400 3.5210 -1.0010 0.4495 65
-0.1400 3.5414 -1.0081 0.5832 65
-0.1400 3.5365 -1.0074 0.7148 99
-0.1400 3.4842 -0.9932 -0.1899 16
-0.1400 3.6468 -1.0402 0.8755 4
-0.1400 3.5285 -1.0071 -0.0641 76
-0.1400 9.3937 -2.6830 2.6177 16
-0.1400 3.5385 -1.0160 0.0643 64
-0.1400 3.5185 -1.0116 0.1919 62
-0.1400 3.5403 -1.0185 0.3223 70
-0.1400 3.5213 -1.0144 0.4499 67
-0.1400 3.5379 -1.0205 0.5832 66
-0.1400 3.5462 -1.0235 0.7174 100
-0.1400 3.4846 -1.0064 -0.1901 16
-0.1400 3.6600 -1.0578 0.8796 1
-0.1400 3.5308 -1.0211 -0.0642 73
-0.1400 1.7407 -1.3708 0.0387 31
-0.1400 1.7256 -1.3598 0.1151 29
-0.1400 0.7972 -0.6282 -0.1973 2
-0.1400 1.7399 -1.3716 0.1938 28
-0.1400 0.9027 -0.7119 -0.1821 2
-0.1400 1.1315 -0.8926 0.1770 32
-0.1400 1.1999 -0.9469 -0.1877 1
-0.1400 1.1318 -0.8935 0.2284 33
-0.1400 1.6873 -1.3321 -0.1881 2
-0.1400 1.1386 -0.8992 0.2820 25
-0.1400 1.7302 -1.3669 -0.1156 28
-0.1400 1.1253 -0.8893 0.3311 10
-0.1400 1.7271 -1.3655 -0.0384 34
-0.1400 1.1152 -0.8820 0.3810 19
-0.1400 1.7391 -1.3793 0.0387 31
-0.1400 1.7302 -1.3733 0.1158 31
-0.1400 0.7950 -0.6310 -0.1973 2
-0.1400 1.7226 -1.3678 0.1924 30
-0.1400 0.9002 -0.7151 -0.1821 2
-0.1400 1.1252 -0.8941 0.1765 31
-0.1400 1.1997 -0.9536 -0.1882 1
-0.1400 1.1225 -0.8926 0.2271 34
-0.1400 1.6780 -1.3343 -0.1876 1
-0.1400 1.1293 -0.8983 0.2805 23
-0.1400 1.7348 -1.3804 -0.1162 30
-0.1400 1.1283 -0.8981 0.3329 22
-0.1400 1.7317 -1.3789 -0.0386 31
-0.1400 1.1091 -0.8835 0.3799 21
-0.1400 1.7311 -1.3829 0.0387 31
-0.1400 1.7316 -1.3843 0.1162 30
-0.1400 0.8143 -0.6510 -0.2026 2
-0.1400 1.7272 -1.3813 0.1935 31
-0.1400 0.9039 -0.7231 -0.1833 2
-0.1400 1.1221 -0.8980 0.1765 32
-0.1400 1.1839 -0.9478 -0.1862 1
-0.1400 1.1225 -0.8989 0.2278 33
-0.1400 1.6764 -1.3426 -0.1879 2
-0.1400 1.1154 -0.8936 0.2778 22
-0.1400 1.7362 -1.3914 -0.1166 32
-0.1400 1.0993 -0.8813 0.3253 21
-0.1400 1.7284 -1.3862 -0.0387 33
-0.1400 1.0985 -0.8813 0.3774 23
-0.1400 1.7294 -1.3915 0.0387 31
-0.1400 1.7299 -1.3929 0.1164 29
-0.1400 0.8028 -0.6464 -0.2003 2
-0.1400 1.7316 -1.3948 0.1945 31
-0.1400 0.8952 -0.7213 -0.1821 2
-0.1400 1.1066 -0.8920 0.1745 30
-0.1400 1.1899 -0.9594 -0.1877 1
-0.1400 1.1132 -0.8979 0.2265 34
-0.1400 1.6609 -1.3397 -0.1867 2
-0.1400 1.1154 -0.9000 0.2786 16
-0.1400 1.7298 -1.3962 -0.1165 30
-0.1400 1.1038 -0.8913 0.3275 23
-0.1400 1.7360 -1.4023 -0.0390 32
-0.1400 1.1014 -0.8900 0.3794 21
-0.1400 1.7307 -1.4025 0.0389 31
-0.1400 1.7219 -1.3964 0.1162 32
-0.1400 0.7823 -0.6344 -0.1958 2
-0.1400 1.7422 -1.4134 0.1963 33
-0.1400 0.9019 -0.7319 -0.1840 2
-0.1400 1.1035 -0.8958 0.1745 28
-0.1400 1.1742 -0.9536 -0.1857 1
-0.1400 1.1008 -0.8943 0.2246 34
-0.1400 1.6717 -1.3580 -0.1884 2
-0.1400 1.1092 -0.9014 0.2778 11
-0.1400 1.7311 -1.4073 -0.1169 34
-0.1400 1.0946 -0.8902 0.3257 23
-0.1400 1.7342 -1.4109 -0.0390 32
-0.1400 1.0923 -0.8890 0.3774 21
-0.1400 1.7351 -1.4161 0.0391 29
-0.1400 1.7263 -1.4100 0.1168 31
-0.1400 0.7983 -0.6520 -0.2003 2
-0.1400 1.7404 -1.4220 0.1966 31
-0.1400 0.8963 -0.7326 -0.1833 2
-0.1400 1.1004 -0.8997 0.1745 28
-0.1400 1.1893 -0.9728 -0.1887 1
-0.1400 1.0931 -0.8944 0.2237 30
-0.1400 1.6731 -1.3689 -0.1891 2
-0.1400 1.0923 -0.8941 0.2744 11
-0.1400 1.7292 -1.4159 -0.1171 32
-0.1400 1.0885 -0.8915 0.3248 23
-0.1400 1.7293 -1.4169 -0.0390 32
-0.1400 1.0877 -0.8915 0.3768 21
-0.1400 1.7394 -1.4298 0.0393 28
-0.1400 1.7306 -1.4236 0.1174 30
-0.1400 0.7960 -0.6548 -0.2003 2
-0.1400 1.7354 -1.4280 0.1966 31
-0.1400 0.8937 -0.7357 -0.1833 2
-0.1400 1.0972 -0.9035 0.1745 28
-0.1400 1.1859 -0.9769 -0.1887 1
-0.1400 1.0824 -0.8919 0.2221 30
-0.1400 1.6683 -1.3747 -0.1891 2
-0.1400 1.0786 -0.8891 0.2717 13
-0.1400 1.7397 -1.4346 -0.1182 31
-0.1400 1.0823 -0.8929 0.3239 23
-0.1400 1.7243 -1.4230 -0.0390 32
-0.1400 1.0652 -0.8793 0.3701 23
-0.1400 1.7344 -1.4359 0.0393 29
-0.1400 1.7318 -1.4347 0.1179 30
-0.1400 0.7816 -0.6475 -0.1973 2
-0.1400 1.7273 -1.4315 0.1963 30
-0.1400 0.8851 -0.7338 -0.1821 2
-0.1400 1.0849 -0.8997 0.1731 30
-0.1400 1.1764 -0.9760 -0.1877 1
-0.1400 1.0823 -0.8982 0.2228 34
-0.1400 1.6727 -1.3882 -0.1902 2
-0.1400 1.0755 -0.8929 0.2717 18
-0.1400 1.7424 -1.4470 -0.1187 29
-0.1400 1.0762 -0.8941 0.3230 24
-0.1400 1.7301 -1.4379 -0.0393 29
-0.1400 1.0651 -0.8855 0.3711 21
-0.1400 1.7309 -1.4432 0.0393 28
-0.1400 1.7329 -1.4459 0.1183 30
-0.1400 0.7944 -0.6628 -0.2011 2
-0.1400 1.7346 -1.4478 0.1977 32
-0.1400 0.8764 -0.7318 -0.1808 2
-0.1400 1.0726 -0.8959 0.1716 32
-0.1400 1.1730 -0.9801 -0.1877 1
-0.1400 1.0731 -0.8969 0.2215 33
-0.1400 1.6602 -1.3876 -0.1893 2
-0.1400 1.0663 -0.8916 0.2702 20
-0.1400 1.7312 -1.4480 -0.1183 31
-0.1400 1.0671 -0.8929 0.3212 24
-0.1400 1.7343 -1.4516 -0.0395 29
-0.1400 1.0516 -0.8806 0.3675 21
-0.1400 1.7366 -1.4582 0.0396 29
-0.1400 1.7218 -1.4468 0.1179 29
-0.1400 0.7921 -0.6656 -0.2011 2
-0.1400 1.7417 -1.4641 0.1991 31
-0.1400 0.8981 -0.7552 -0.1858 2
-0.1400 1.0695 -0.8996 0.1716 32
-0.1400 1.1665 -0.9816 -0.1872 1
-0.1400 1.0760 -0.9058 0.2228 30
-0.1400 1.6812 -1.4152 -0.1923 2
-0.1400 1.0707 -0.9016 0.2721 22
-0.1400 1.7322 -1.4592 -0.1187 29
-0.1400 1.0536 -0.8878 0.3181 25
-0.1400 1.7323 -1.4603 -0.0395 29
-0.1400 1.0515 -0.8867 0.3686 20
-0.1400 1.7407 -1.4720 0.0398 28
-0.1400 0.6472 -0.5475 -0.1957 5
-0.1400 1.7291 -1.4628 0.1187 28
-0.1400 0.7808 -0.6608 -0.1988 2
-0.1400 1.7457 -1.4779 0.2001 31
-0.1400 0.8834 -0.7481 -0.1833 2
-0.1400 1.0663 -0.9033 0.1716 30
-0.1400 1.1812 -1.0011 -0.1901 1
-0.1400 1.0579 -0.8965 0.2196 30
-0.1400 1.6641 -1.4108 -0.1909 2
-0.1400 1.0676 -0.9054 0.2721 24
-0.1400 1.7393 -1.4755 -0.1195 28
-0.1400 1.0475 -0.8890 0.3172 29
-0.1400 1.7229 -1.4621 -0.0394 28
-0.1400 1.0441 -0.8864 0.3670 21
-0.1400 1.7373 -1.4791 0.0398 22
-0.1400 0.6661 -0.5673 -0.2020 5
-0.1400 1.7286 -1.4727 0.1190 18
-0.1400 0.7665 -0.6533 -0.1958 2
-0.1400 1.7891 -1.5253 0.2057 20
-0.1400 0.8869 -0.7561 -0.1846 2
-0.1400 1.0633 -0.9069 0.1716 31
-0.1400 1.1628 -0.9921 -0.1877 1
-0.1400 1.0518 -0.8977 0.2190 31
-0.1400 1.6350 -1.3959 -0.1881 2
-0.1400 1.0571 -0.9025 0.2702 22
-0.1400 1.7435 -1.4891 -0.1202 17
-0.1400 1.0416 -0.8899 0.3163 30
-0.1400 1.7329 -1.4811 -0.0398 17
-0.1400 1.0308 -0.8813 0.3634 21
-0.1400 3.2700 -2.8037 0.0752 55
-0.1400 0.7381 -0.6331 -0.2245 2
-0.1400 3.2756 -2.8105 0.2262 50
-0.1400 0.7703 -0.6609 -0.1973 2
-0.1400 1.8702 -1.6052 0.2156 26
-0.1400 0.8633 -0.7412 -0.1802 2
-0.1400 1.0526 -0.9041 0.1704 35
-0.1400 1.1834 -1.0168 -0.1916 1
-0.1400 1.0456 -0.8988 0.2184 34
-0.1400 1.6273 -1.3987 -0.1877 1
-0.1400 1.0361 -0.8909 0.2656 19
-0.1400 1.0385 -0.8935 0.3163 29
-0.1400 3.2570 -2.8034 -0.0750 12
-0.1400 1.0189 -0.8773 0.3603 20
-0.1400 3.2496 -2.8059 0.0749 51
-0.1400 0.5884 -0.5083 -0.1795 7
-0.1400 3.2552 -2.8128 0.2255 57
-0.1400 0.7858 -0.6790 -0.2019 2
-0.1400 1.8646 -1.6117 0.2156 26
-0.1400 0.8637 -0.7468 -0.1808 2
-0.1400 1.0344 -0.8948 0.1679 35
-0.1400 1.1619 -1.0054 -0.1887 1
-0.1400 1.0470 -0.9063 0.2193 28
-0.1400 1.6043 -1.3887 -0.1856 1
-0.1400 1.0300 -0.8919 0.2648 15
-0.1400 2.5920 -2.2453 -0.1797 1
-0.1400 1.0339 -0.8959 0.3158 28
-0.1400 3.2366 -2.8056 -0.0748 22
-0.1400 1.0217 -0.8859 0.3623 20
-0.1400 3.2307 -2.8094 0.0747 52
-0.1400 0.5866 -0.5103 -0.1795 7
-0.1400 3.2167 -2.7992 0.2235 42
-0.1400 0.7686 -0.6689 -0.1981 2
-0.1400 1.8694 -1.6274 0.2168 28
-0.1400 0.8610 -0.7498 -0.1808 1
-0.1400 1.0283 -0.8958 0.1674 35
-0.1400 1.1494 -1.0016 -0.1872 1
-0.1400 1.0319 -0.8995 0.2168 28
-0.1400 1.5935 -1.3891 -0.1849 1
-0.1400 1.0284 -0.8968 0.2652 12
-0.1400 2.5902 -2.2596 -0.1801 1
-0.1400 1.0072 -0.8790 0.3086 28
-0.1400 3.2208 -2.8116 -0.0746 50
-0.1400 1.0171 -0.8882 0.3618 21
-0.1400 3.2163 -2.8167 0.0746 54
-0.1400 0.6376 -0.5586 -0.1957 5
-0.1400 3.1979 -2.8025 0.2228 28
-0.1400 0.7634 -0.6690 -0.1973 2
-0.1400 1.8757 -1.6444 0.2182 29
-0.1400 0.8703 -0.7632 -0.1833 2
-0.1400 1.0282 -0.9020 0.1679 38
-0.1400 1.1578 -1.0161 -0.1891 1
-0.1400 1.0139 -0.8901 0.2137 27
-0.1400 1.6141 -1.4170 -0.1879 1
-0.1400 1.0297 -0.9043 0.2664 9
-0.1400 2.5778 -2.2647 -0.1798 1
-0.1400 1.0042 -0.8825 0.3086 28
-0.1400 3.1794 -2.7951 -0.0739 64
-0.1400 1.0111 -0.8892 0.3608 20
-0.1400 3.1915 -2.8147 0.0743 54
-0.1400 0.6591 -0.5814 -0.2029 5
-0.1400 3.1627 -2.7912 0.2211 13
-0.1400 0.7757 -0.6846 -0.2011 2
-0.1400 1.8595 -1.6417 0.2170 28
-0.1400 0.8617 -0.7610 -0.1821 2
-0.1400 1.0250 -0.9056 0.1679 35
-0.1400 1.1542 -1.0201 -0.1891 1
-0.1400 1.0078 -0.8910 0.2131 27
-0.1400 1.6031 -1.4173 -0.1872 1
-0.1400 1.0162 -0.8987 0.2637 14
-0.1400 2.1989 -1.9454 -0.1539 1
-0.1400 1.0098 -0.8937 0.3113 27
-0.1400 3.1606 -2.7983 -0.0737 60
-0.1400 0.9993 -0.8851 0.3577 20
-0.1400 3.0232 -2.6850 0.0706 46
-0.1400 0.6075 -0.5397 -0.1876 6
-0.1400 3.0141 -2.6788 0.2113 38
-0.1400 0.7645 -0.6795 -0.1988 2
-0.1400 1.8612 -1.6548 0.2179 28
-0.1400 0.8709 -0.7745 -0.1846 1
-0.1400 1.0189 -0.9065 0.1674 35
-0.1400 1.1536 -1.0268 -0.1896 1
-0.1400 1.0062 -0.8959 0.2134 26
-0.1400 1.5967 -1.4216 -0.1870 2
-0.1400 1.0013 -0.8918 0.2606 22
-0.1400 2.1474 -1.9132 -0.1507 2
-0.1400 1.0023 -0.8934 0.3100 30
-0.1400 3.1389 -2.7986 -0.0734 61
-0.1400 0.9933 -0.8860 0.3567 20
-0.1400 2.9974 -2.6809 0.0702 61
-0.1400 0.5998 -0.5367 -0.1858 6
-0.1400 3.0181 -2.7013 0.2123 57
-0.1400 0.7475 -0.6691 -0.1950 2
-0.1400 1.8747 -1.6786 0.2202 27
-0.1400 0.8623 -0.7723 -0.1833 2
-0.1400 1.0024 -0.8981 0.1653 35
-0.1400 1.1441 -1.0255 -0.1887 1
-0.1400 1.0016 -0.8980 0.2131 27
-0.1400 1.6051 -1.4391 -0.1886 1
-0.1400 1.0011 -0.8979 0.2614 24
-0.1400 2.1169 -1.8994 -0.1491 2
-0.1400 0.9963 -0.8943 0.3091 29
-0.1400 3.1098 -2.7922 -0.0730 52
-0.1400 0.9859 -0.8856 0.3551 21
-0.1400 0.5685 -0.5119 -0.2050 7
-0.1400 3.0712 -2.7663 0.0721 49
-0.1400 0.6298 -0.5674 -0.1957 5
-0.1400 3.0977 -2.7921 0.2186 40
-0.1400 0.7423 -0.6690 -0.1942 2
-0.1400 1.8807 -1.6958 0.2215 25
-0.1400 0.8537 -0.7700 -0.1821 2
-0.1400 0.9919 -0.8950 0.1640 35
-0.1400 1.1376 -1.0268 -0.1882 1
-0.1400 0.9955 -0.8989 0.2124 26
-0.1400 1.5882 -1.4340 -0.1872 1
-0.1400 0.9907 -0.8949 0.2595 27
-0.1400 2.1266 -1.9215 -0.1502 2
-0.1400 0.9831 -0.8886 0.3059 28
-0.1400 2.9161 -2.6367 -0.0686 23
-0.1400 0.9828 -0.8890 0.3551 20
-0.1400 3.1030 -2.8146 0.0731 56
-0.1400 0.6566 -0.5958 -0.2047 4
-0.1400 3.0805 -2.7962 0.2180 43
-0.1400 0.7545 -0.6848 -0.1981 2
-0.1400 1.8836 -1.7104 0.2226 25
-0.1400 0.8656 -0.7863 -0.1852 2
-0.1400 0.9902 -0.8998 0.1643 35
-0.1400 1.1311 -1.0281 -0.1877 1
-0.1400 0.9778 -0.8891 0.2093 28
-0.1400 1.5714 -1.4289 -0.1858 1
-0.1400 0.9876 -0.8983 0.2595 28
-0.1400 2.1184 -1.9276 -0.1501 2
-0.1400 0.9771 -0.8894 0.3050 27
-0.1400 3.0799 -2.8044 -0.0727 71
-0.1400 0.9797 -0.8924 0.3551 21
-0.1400 3.0784 -2.8119 0.0728 53
-0.1400 0.6488 -0.5929 -0.2029 5
-0.1400 3.0619 -2.7988 0.2174 36
-0.1400 0.7550 -0.6901 -0.1988 2
-0.1400 1.8659 -1.7062 0.2212 26
-0.1400 0.8629 -0.7893 -0.1852 2
-0.1400 0.9915 -0.9072 0.1650 38
-0.1400 1.1304 -1.0347 -0.1882 1
-0.1400 0.9746 -0.8925 0.2093 28
-0.1400 1.5605 -1.4289 -0.1851 1
-0.1400 0.9859 -0.9031 0.2599 29
-0.1400 2.1852 -2.0024 -0.1553 1
-0.1400 0.9697 -0.8888 0.3037 30
-0.1400 3.0612 -2.8070 -0.0725 79
-0.1400 0.9681 -0.8880 0.3520 20
-0.1400 2.8655 -2.6359 0.0680 21
-0.1400 0.7156 -0.6585 -0.2245 2
-0.1400 2.8552 -2.6282 0.2034 17
-0.1400 0.7410 -0.6821 -0.1958 2
-0.1400 1.8687 -1.7208 0.2222 26
-0.1400 0.8398 -0.7736 -0.1808 2
-0.1400 0.9795 -0.9026 0.1635 37
-0.1400 1.1385 -1.0494 -0.1901 1
-0.1400 0.9715 -0.8959 0.2093 28
-0.1400 1.5555 -1.4344 -0.1851 1
-0.1400 0.9697 -0.8945 0.2564 27
-0.1400 2.9327 -2.7062 -0.2091 2
-0.1400 0.9651 -0.8909 0.3032 28
-0.1400 3.0308 -2.7987 -0.0720 59
-0.1400 0.9579 -0.8848 0.3494 22
-0.1400 2.8416 -2.6323 0.0676 60
-0.1400 0.6218 -0.5762 -0.1957 5
-0.1400 0.7444 -0.6900 -0.1973 2
-0.1400 1.8773 -1.7408 0.2240 24
-0.1400 0.8487 -0.7872 -0.1833 2
-0.1400 0.9633 -0.8939 0.1614 34
-0.1400 1.1319 -1.0507 -0.1896 1
-0.1400 0.9742 -0.9046 0.2106 27
-0.1400 1.5739 -1.4615 -0.1879 1
-0.1400 0.9666 -0.8979 0.2564 28
-0.1400 2.9276 -2.7205 -0.2094 2
-0.1400 0.9663 -0.8982 0.3046 27
-0.1400 3.0079 -2.7970 -0.0717 57
-0.1400 0.9519 -0.8855 0.3484 21
-0.1400 2.8236 -2.6340 0.0674 68
-0.1400 0.7110 -0.6634 -0.2245 2
-0.1400 0.7621 -0.7114 -0.2026 2
-0.1400 1.8799 -1.7555 0.2250 23
-0.1400 0.8459 -0.7902 -0.1833 2
-0.1400 0.9558 -0.8932 0.1606 35
-0.1400 1.1050 -1.0330 -0.1857 1
-0.1400 0.9625 -0.8998 0.2087 28
-0.1400 1.5571 -1.4561 -0.1865 1
-0.1400 0.9606 -0.8986 0.2557 28
-0.1400 2.9210 -2.7334 -0.2097 2
-0.1400 0.9432 -0.8830 0.2983 27
-0.1400 2.9898 -2.7988 -0.0715 63
-0.1400 0.9518 -0.8913 0.3494 22
-0.1400 0.5577 -0.5237 -0.2050 7
-0.1400 2.8178 -2.6461 0.0675 78
-0.1400 0.7031 -0.6605 -0.2227 3
-0.1400 0.7281 -0.6844 -0.1942 2
-0.1400 1.8709 -1.7594 0.2247 23
-0.1400 0.8433 -0.7930 -0.1833 1
-0.1400 0.9586 -0.9018 0.1616 37
-0.1400 1.1016 -1.0366 -0.1857 1
-0.1400 0.9522 -0.8963 0.2071 33
-0.1400 1.5520 -1.4615 -0.1865 1
-0.1400 0.9605 -0.9045 0.2564 27
-0.1400 2.9105 -2.7417 -0.2096 2
-0.1400 0.9403 -0.8861 0.2983 27
-0.1400 2.9626 -2.7927 -0.0711 60
-0.1400 0.9487 -0.8946 0.3494 22
-0.1400 0.5559 -0.5255 -0.2050 7
-0.1400 2.8259 -2.6724 0.0679 42
-0.1400 0.6668 -0.6308 -0.2119 4
-0.1400 1.8453 -1.7462 0.1331 2
-0.1400 0.7401 -0.7004 -0.1981 2
-0.1400 1.8665 -1.7669 0.2249 24
-0.1400 0.8462 -0.8014 -0.1846 1
-0.1400 0.9483 -0.8983 0.1604 34
-0.1400 1.0951 -1.0377 -0.1852 1
-0.1400 0.9490 -0.8997 0.2071 36
-0.1400 1.5411 -1.4614 -0.1858 1
-0.1400 0.9488 -0.8997 0.2542 30
-0.1400 2.8980 -2.7491 -0.2093 2
-0.1400 0.9344 -0.8867 0.2974 29
-0.1400 2.9426 -2.7934 -0.0708 61
-0.1400 0.9330 -0.8860 0.3447 23
-0.1400 0.5540 -0.5276 -0.2050 7
-0.1400 2.7775 -2.6450 0.0669 27
-0.1400 0.6505 -0.6196 -0.2074 4
-0.1400 1.8435 -1.7568 0.1335 3
-0.1400 0.7261 -0.6922 -0.1950 2
-0.1400 1.8687 -1.7820 0.2259 22
-0.1400 0.8319 -0.7936 -0.1821 2
-0.1400 0.9451 -0.9016 0.1604 35
-0.1400 1.1087 -1.0580 -0.1882 1
-0.1400 0.9488 -0.9057 0.2077 37
-0.1400 1.5216 -1.4531 -0.1841 1
-0.1400 0.9355 -0.8937 0.2515 28
-0.1400 2.8792 -2.7515 -0.2087 2
-0.1400 0.9353 -0.8941 0.2987 28
-0.1400 2.9314 -2.8023 -0.0708 63
-0.1400 0.9215 -0.8812 0.3416 25
-0.1400 0.5522 -0.5295 -0.2050 7
-0.1400 2.7259 -2.6150 0.0659 41
-0.1400 0.6623 -0.6355 -0.2119 4
-0.1400 1.8590 -1.7839 0.1350 3
-0.1400 0.7492 -0.7192 -0.2019 2
-0.1400 1.8711 -1.7968 0.2270 24
-0.1400 0.8348 -0.8019 -0.1833 2
-0.1400 0.9318 -0.8954 0.1587 35
-0.1400 1.0962 -1.0538 -0.1867 1
-0.1400 0.9456 -0.9090 0.2077 37
-0.1400 1.5366 -1.4777 -0.1865 1
-0.1400 0.9310 -0.8956 0.2511 28
-0.1400 2.8466 -2.7393 -0.2070 2
-0.1400 0.9308 -0.8960 0.2983 29
-0.1400 2.9101 -2.8014 -0.0705 63
-0.1400 0.9240 -0.8898 0.3437 23
-0.1400 0.5503 -0.5314 -0.2050 7
-0.1400 2.7259 -2.6324 0.0661 64
-0.1400 0.6601 -0.6377 -0.2119 4
-0.1400 1.8499 -1.7876 0.1348 4
-0.1400 0.7326 -0.7082 -0.1981 2
-0.1400 1.8705 -1.8088 0.2277 23
-0.1400 0.8321 -0.8047 -0.1833 2
-0.1400 0.9260 -0.8958 0.1582 35
-0.1400 1.0870 -1.0519 -0.1857 1
-0.1400 0.9339 -0.9041 0.2059 39
-0.1400 1.5343 -1.4858 -0.1869 1
-0.1400 0.9322 -0.9028 0.2522 23
-0.1400 2.8375 -2.7488 -0.2070 2
-0.1400 0.9194 -0.8910 0.2956 29
-0.1400 2.8917 -2.8032 -0.0703 66
-0.1400 0.9250 -0.8970 0.3453 29
-0.1400 0.5485 -0.5332 -0.2050 7
-0.1400 2.7267 -2.6516 0.0664 76
-0.1400 0.6970 -0.6781 -0.2245 2
-0.1400 1.8479 -1.7983 0.1351 4
-0.1400 0.7274 -0.7079 -0.1973 2
-0.1400 1.8788 -1.8289 0.2294 24
-0.1400 0.8123 -0.7911 -0.1796 1
-0.1400 0.9200 -0.8962 0.1577 35
-0.1400 1.0919 -1.0640 -0.1872 1
-0.1400 0.9222 -0.8990 0.2040 40
-0.1400 1.5265 -1.4881 -0.1865 1
-0.1400 0.9263 -0.9033 0.2515 19
-0.1400 2.8193 -2.7503 -0.2064 2
-0.1400 0.9107 -0.8888 0.2938 29
-0.1400 2.8647 -2.7965 -0.0699 63
-0.1400 0.9164 -0.8949 0.3432 27
-0.1400 0.5467 -0.5352 -0.2050 7
-0.1400 2.7289 -2.6723 0.0667 52
-0.1400 0.6946 -0.6805 -0.2245 2
-0.1400 1.8587 -1.8215 0.1364 5
-0.1400 0.7165 -0.7022 -0.1950 2
-0.1400 1.8681 -1.8313 0.2289 24
-0.1400 0.8265 -0.8105 -0.1833 2
-0.1400 0.9225 -0.9050 0.1587 37
-0.1400 1.0768 -1.0567 -0.1852 1
-0.1400 0.9106 -0.8939 0.2021 37
-0.1400 1.5185 -1.4907 -0.1862 1
-0.1400 0.9231 -0.9065 0.2515 14
-0.1400 2.7940 -2.7447 -0.2053 2
-0.1400 0.9118 -0.8960 0.2951 28
-0.1400 2.8464 -2.7981 -0.0697 60
-0.1400 0.9008 -0.8859 0.3385 24
-0.1400 0.5448 -0.5371 -0.2050 7
-0.1400 2.6640 -2.6271 0.0653 34
-0.1400 0.6035 -0.5953 -0.1957 5
-0.1400 1.8623 -1.8378 0.1371 6
-0.1400 0.7420 -0.7322 -0.2026 2
-0.1400 1.8745 -1.8504 0.2304 24
-0.1400 0.8237 -0.8134 -0.1833 2
-0.1400 0.9109 -0.8998 0.1572 35
-0.1400 1.0844 -1.0716 -0.1872 1
-0.1400 0.9103 -0.8999 0.2027 40
-0.1400 1.5104 -1.4931 -0.1858 1
-0.1400 0.9074 -0.8973 0.2481 11
-0.1400 2.7645 -2.7348 -0.2038 2
-0.1400 0.9059 -0.8965 0.2942 28
-0.1400 2.8337 -2.8052 -0.0696 67
-0.1400 0.8936 -0.8849 0.3370 26
-0.1400 0.5429 -0.5390 -0.2050 7
-0.1400 2.6420 -2.6237 0.0650 52
-0.1400 0.7397 -0.7348 -0.2407 2
-0.1400 1.8644 -1.8527 0.1377 6
-0.1400 0.7200 -0.7155 -0.1973 2
-0.1400 1.8708 -1.8598 0.2308 23
-0.1400 0.8068 -0.8023 -0.1802 1
-0.1400 0.8993 -0.8946 0.1557 35
-0.1400 1.0947 -1.0894 -0.1896 1
-0.1400 0.9016 -0.8975 0.2015 37
-0.1400 1.5095 -1.5026 -0.1863 1
-0.1400 0.8945 -0.8908 0.2454 12
-0.1400 2.7309 -2.7205 -0.2020 3
-0.1400 0.9014 -0.8982 0.2938 30
-0.1400 2.8140 -2.8052 -0.0694 65
-0.1400 0.8933 -0.8908 0.3380 25
-0.1400 0.5410 -0.5409 -0.2050 7
-0.1400 2.6357 -2.6357 0.0651 76
-0.1400 0.6875 -0.6877 -0.2245 2
-0.1400 1.8523 -1.8536 0.1373 7
-0.1400 0.7175 -0.7180 -0.1973 2
-0.1400 1.8826 -1.8846 0.2331 22
-0.1400 0.8180 -0.8191 -0.1833 1
-0.1400 0.8948 -0.8963 0.1555 33
-0.1400 1.0797 -1.0820 -0.1877 1
-0.1400 0.9040 -0.9062 0.2027 37
-0.1400 1.5169 -1.5206 -0.1879 1
-0.1400 0.8928 -0.8953 0.2458 15
-0.1400 2.7101 -2.7187 -0.2012 3
-0.1400 0.8872 -0.8903 0.2902 30
-0.1400 2.7943 -2.8051 -0.0691 70
-0.1400 0.8874 -0.8911 0.3370 26
-0.1400 2.6335 -2.6520 0.0652 85
-0.1400 0.7345 -0.7399 -0.2407 2
-0.1400 1.8613 -1.8756 0.1385 9
-0.1400 0.7150 -0.7205 -0.1973 2
-0.1400 1.8774 -1.8926 0.2332 22
-0.1400 0.8207 -0.8276 -0.1846 2
-0.1400 0.8860 -0.8938 0.1545 34
-0.1400 1.0591 -1.0688 -0.1848 1
-0.1400 0.8842 -0.8925 0.1990 37
-0.1400 1.5115 -1.5259 -0.1879 1
-0.1400 0.8924 -0.9012 0.2465 20
-0.1400 2.6950 -2.7224 -0.2008 3
-0.1400 0.8841 -0.8934 0.2902 30
-0.1400 2.7564 -2.7864 -0.0684 62
-0.1400 0.8816 -0.8915 0.3359 25
-0.1400 2.6299 -2.6668 0.0654 54
-0.1400 0.6635 -0.6731 -0.2182 3
-0.1400 1.8676 -1.8946 0.1394 10
-0.1400 0.7014 -0.7118 -0.1942 2
-0.1400 1.8708 -1.8991 0.2332 22
-0.1400 0.8150 -0.8276 -0.1840 2
-0.1400 0.8885 -0.9025 0.1555 35
-0.1400 1.0695 -1.0865 -0.1872 1
-0.1400 0.8812 -0.8955 0.1990 33
-0.1400 1.5034 -1.5283 -0.1876 1
-0.1400 0.8879 -0.9029 0.2461 22
-0.1400 2.5931 -2.6378 -0.1939 3
-0.1400 0.8853 -0.9005 0.2915 31
-0.1400 2.7401 -2.7884 -0.0682 58
-0.1400 0.8624 -0.8779 0.3297 28
-0.1400 0.5354 -0.5464 -0.2050 7
-0.1400 2.5916 -2.6456 0.0646 28
-0.1400 0.6449 -0.6586 -0.2128 4
-0.1400 1.8669 -1.9065 0.1398 12
-0.1400 0.7045 -0.7197 -0.1958 2
-0.1400 1.8687 -1.9096 0.2338 23
-0.1400 0.8095 -0.8275 -0.1833 2
-0.1400 0.8841 -0.9041 0.1553 37
-0.1400 1.0631 -1.0872 -0.1867 1
-0.1400 0.8796 -0.8998 0.1993 34
-0.1400 1.5095 -1.5447 -0.1890 1
-0.1400 0.8739 -0.8946 0.2431 24
-0.1400 2.6638 -2.7278 -0.1998 3
-0.1400 0.8823 -0.9035 0.2915 31
-0.1400 2.7281 -2.7946 -0.0682 56
-0.1400 0.8649 -0.8863 0.3318 27
-0.1400 0.5336 -0.5482 -0.2050 7
-0.1400 2.5494 -2.6197 0.0638 52
-0.1400 0.6590 -0.6775 -0.2182 3
-0.1400 1.8672 -1.9201 0.1404 12
-0.1400 0.7020 -0.7222 -0.1958 2
-0.1400 1.8735 -1.9272 0.2351 21
-0.1400 0.8067 -0.8302 -0.1833 2
-0.1400 0.8714 -0.8970 0.1536 31
-0.1400 1.0566 -1.0880 -0.1862 2
-0.1400 0.8778 -0.9043 0.1996 34
-0.1400 1.4819 -1.5270 -0.1862 1
-0.1400 0.8653 -0.8920 0.2416 25
-0.1400 2.6348 -2.7170 -0.1984 3
-0.1400 0.8750 -0.9023 0.2902 30
-0.1400 2.7114 -2.7969 -0.0680 55
-0.1400 0.8591 -0.8865 0.3308 28
-0.1400 0.5316 -0.5501 -0.2050 7
-0.1400 2.5384 -2.6276 0.0638 43
-0.1400 0.6755 -0.6995 -0.2245 2
-0.1400 1.8643 -1.9313 0.1407 15
-0.1400 0.7103 -0.7360 -0.1988 2
-0.1400 1.8788 -1.9469 0.2367 20
-0.1400 0.7900 -0.8189 -0.1802 2
-0.1400 0.8626 -0.8945 0.1526 34
-0.1400 1.0553 -1.0947 -0.1867 1
-0.1400 0.8690 -0.9018 0.1984 36
-0.1400 1.4929 -1.5497 -0.1883 1
-0.1400 0.8702 -0.9036 0.2439 24
-0.1400 2.4808 -2.5770 -0.1875 4
-0.1400 0.8636 -0.8971 0.2875 33
-0.1400 2.4875 -2.5849 -0.0626 16
-0.1400 0.8531 -0.8869 0.3297 29
-0.1400 2.4678 -2.5734 0.0622 23
-0.1400 0.6217 -0.6485 -0.2074 4
-0.1400 1.8590 -1.9392 0.1408 14
-0.1400 0.7131 -0.7442 -0.2003 2
-0.1400 1.8772 -1.9596 0.2374 20
-0.1400 0.7952 -0.8303 -0.1821 2
-0.1400 0.8607 -0.8991 0.1528 30
-0.1400 1.0625 -1.1099 -0.1887 1
-0.1400 0.8536 -0.8920 0.1955 31
-0.1400 1.4847 -1.5520 -0.1879 1
-0.1400 0.8657 -0.9053 0.2435 28
-0.1400 2.4580 -2.5713 -0.1864 5
-0.1400 0.8591 -0.8987 0.2870 32
-0.1400 2.4523 -2.5661 -0.0620 27
-0.1400 0.8500 -0.8898 0.3297 29
-0.1400 2.4468 -2.5685 0.0619 22
-0.1400 0.6330 -0.6647 -0.2119 4
-0.1400 1.8636 -1.9569 0.1416 14
-0.1400 0.7053 -0.7408 -0.1988 2
-0.1400 1.8707 -1.9658 0.2374 20
-0.1400 0.8006 -0.8416 -0.1840 2
-0.1400 0.8577 -0.9019 0.1528 30
-0.1400 1.0561 -1.1105 -0.1882 1
-0.1400 0.8574 -0.9020 0.1971 33
-0.1400 1.4823 -1.5598 -0.1883 1
-0.1400 0.8654 -0.9110 0.2442 30
-0.1400 2.4426 -2.5721 -0.1859 5
-0.1400 0.8561 -0.9016 0.2870 32
-0.1400 2.4231 -2.5525 -0.0614 26
-0.1400 0.8391 -0.8842 0.3266 29
-0.1400 2.4218 -2.5592 0.0615 21
-0.1400 0.6093 -0.6441 -0.2047 4
-0.1400 1.8663 -1.9736 0.1424 15
-0.1400 0.6758 -0.7147 -0.1912 2
-0.1400 1.8669 -1.9749 0.2378 19
-0.1400 0.7815 -0.8270 -0.1802 2
-0.1400 0.8533 -0.9033 0.1526 31
-0.1400 1.0358 -1.0969 -0.1852 1
-0.1400 0.8475 -0.8978 0.1955 31
-0.1400 1.4577 -1.5447 -0.1858 1
-0.1400 0.8570 -0.9081 0.2427 31
-0.1400 2.4327 -2.5788 -0.1858 4
-0.1400 0.8557 -0.9074 0.2879 31
-0.1400 2.4155 -2.5624 -0.0615 26
-0.1400 0.8334 -0.8843 0.3256 26
-0.1400 0.5239 -0.5575 -0.2050 7
-0.1400 2.4074 -2.5618 0.0614 20
-0.1400 0.6471 -0.6889 -0.2182 3
-0.1400 1.8704 -1.9917 0.1432 16
-0.1400 0.6839 -0.7286 -0.1942 2
-0.1400 1.8706 -1.9933 0.2392 19
-0.1400 0.7920 -0.8442 -0.1833 2
-0.1400 0.8407 -0.8962 0.1509 30
-0.1400 1.0564 -1.1266 -0.1896 1
-0.1400 0.8484 -0.9051 0.1965 33
-0.1400 1.4605 -1.5585 -0.1869 1
-0.1400 0.8456 -0.9027 0.2404 31
-0.1400 2.4068 -2.5702 -0.1845 4
-0.1400 0.8443 -0.9020 0.2852 31
-0.1400 2.4025 -2.5664 -0.0614 27
-0.1400 0.8329 -0.8901 0.3266 25
-0.1400 2.3898 -2.5619 0.0612 22
-0.1400 0.6446 -0.6912 -0.2182 3
-0.1400 1.8658 -2.0015 0.1434 16
-0.1400 0.6867 -0.7367 -0.1958 2
-0.1400 1.8758 -2.0130 0.2407 21
-0.1400 0.7836 -0.8412 -0.1821 2
-0.1400 0.8387 -0.9007 0.1511 26
-0.1400 1.0469 -1.1246 -0.1887 1
-0.1400 0.8411 -0.9038 0.1955 31
-0.1400 1.4604 -1.5694 -0.1876 1
-0.1400 0.8451 -0.9085 0.2412 30
-0.1400 2.3788 -2.5581 -0.1831 5
-0.1400 0.8319 -0.8949 0.2821 30
-0.1400 2.3781 -2.5591 -0.0610 22
-0.1400 0.8270 -0.8903 0.3256 28
-0.1400 2.3808 -2.5702 0.0612 20
-0.1400 0.6422 -0.6935 -0.2182 3
-0.1400 1.8683 -2.0182 0.1441 18
-0.1400 0.6895 -0.7449 -0.1973 2
-0.1400 1.8728 -2.0239 0.2412 20
-0.1400 0.7887 -0.8527 -0.1840 2
-0.1400 0.8316 -0.8993 0.1504 28
-0.1400 1.0403 -1.1253 -0.1882 1
-0.1400 0.8231 -0.8908 0.1921 28
-0.1400 1.4522 -1.5716 -0.1872 1
-0.1400 0.8406 -0.9100 0.2408 29
-0.1400 2.3780 -2.5752 -0.1837 7
-0.1400 0.8301 -0.8993 0.2825 33
-0.1400 2.3542 -2.5512 -0.0606 23
-0.1400 0.8187 -0.8875 0.3235 29
-0.1400 0.5180 -0.5629 -0.2050 7
-0.1400 2.3637 -2.5696 0.0609 20
-0.1400 0.6397 -0.6957 -0.2182 3
-0.1400 1.8612 -2.0248 0.1441 17
-0.1400 0.6922 -0.7530 -0.1988 2
-0.1400 1.8698 -2.0348 0.2418 21
-0.1400 0.7831 -0.8525 -0.1833 2
-0.1400 0.8311 -0.9051 0.1509 28
-0.1400 1.0390 -1.1319 -0.1887 2
-0.1400 0.8240 -0.8980 0.1930 28
-0.1400 1.4441 -1.5737 -0.1869 1
-0.1400 0.8321 -0.9071 0.2393 24
-0.1400 2.3757 -2.5908 -0.1842 9
-0.1400 0.8270 -0.9021 0.2825 33
-0.1400 2.3385 -2.5521 -0.0604 23
-0.1400 0.8064 -0.8804 0.3199 26
-0.1400 2.3440 -2.5661 0.0607 19
-0.1400 0.6189 -0.6778 -0.2119 4
-0.1400 1.8730 -2.0519 0.1456 19
-0.1400 0.6896 -0.7555 -0.1988 2
-0.1400 1.8707 -2.0502 0.2428 21
-0.1400 0.7668 -0.8406 -0.1802 2
-0.1400 0.8253 -0.9050 0.1504 28
-0.1400 1.0297 -1.1296 -0.1877 2
-0.1400 0.8236 -0.9038 0.1937 22
-0.1400 1.4117 -1.5493 -0.1834 1
-0.1400 0.8197 -0.8999 0.2366 27
-0.1400 2.3640 -2.5962 -0.1840 7
-0.1400 0.8238 -0.9050 0.2825 32
-0.1400 2.3283 -2.5587 -0.0604 21
-0.1400 0.8046 -0.8846 0.3204 26
-0.1400 2.3296 -2.5683 0.0605 19
-0.1400 0.5877 -0.6482 -0.2020 5
-0.1400 1.8742 -2.0670 0.1462 19
-0.1400 0.6764 -0.7462 -0.1958 2
-0.1400 1.8676 -2.0611 0.2433 19
-0.1400 0.7771 -0.8579 -0.1833 2
-0.1400 0.8168 -0.9020 0.1494 26
-0.1400 1.0231 -1.1303 -0.1872 2
-0.1400 0.8139 -0.8992 0.1921 18
-0.1400 1.4250 -1.5749 -0.1858 1
-0.1400 0.8165 -0.9027 0.2366 27
-0.1400 2.3375 -2.5851 -0.1827 8
-0.1400 0.8193 -0.9064 0.2821 33
-0.1400 2.3157 -2.5620 -0.0603 22
-0.1400 0.8017 -0.8873 0.3204 27
-0.1400 0.5121 -0.5683 -0.2050 7
-0.1400 2.3157 -2.5701 0.0604 20
-0.1400 0.6325 -0.7023 -0.2182 3
-0.1400 1.8657 -2.0720 0.1461 18
-0.1400 0.6895 -0.7661 -0.2003 2
-0.1400 1.8710 -2.0795 0.2447 6
-0.1400 0.7690 -0.8546 -0.1821 2
-0.1400 0.8085 -0.8988 0.1484 27
-0.1400 1.0246 -1.1396 -0.1882 2
-0.1400 0.8081 -0.8991 0.1915 19
-0.1400 1.4328 -1.5947 -0.1876 1
-0.1400 0.8109 -0.9025 0.2358 27
-0.1400 2.3156 -2.5780 -0.1816 9
-0.1400 0.8046 -0.8961 0.2780 31
-0.1400 2.3041 -2.5671 -0.0602 23
-0.1400 0.8012 -0.8929 0.3215 25
-0.1400 2.3041 -2.5752 0.0603 19
-0.1400 0.6483 -0.7248 -0.2245 2
-0.1400 1.8694 -2.0901 0.1470 20
-0.1400 0.6687 -0.7479 -0.1950 2
-0.1400 1.8801 -2.1035 0.2468 13
-0.1400 0.7713 -0.8632 -0.1833 2
-0.1400 0.8080 -0.9046 0.1489 27
-0.1400 1.0233 -1.1461 -0.1887 2
-0.1400 0.8012 -0.8974 0.1905 18
-0.1400 1.4196 -1.5905 -0.1865 1
-0.1400 0.8117 -0.9097 0.2370 22
-0.1400 2.2986 -2.5771 -0.1810 10
-0.1400 0.7989 -0.8960 0.2771 33
-0.1400 2.2810 -2.5583 -0.0598 24
-0.1400 0.7944 -0.8913 0.3199 26
-0.1400 2.2836 -2.5693 0.0600 21
-0.1400 0.6562 -0.7386 -0.2281 2
-0.1400 1.8687 -2.1041 0.1475 19
-0.1400 0.6530 -0.7355 -0.1912 2
-0.1400 1.8780 -2.1160 0.2475 20
-0.1400 0.7579 -0.8539 -0.1808 2
-0.1400 0.8050 -0.9073 0.1489 27
-0.1400 1.0090 -1.1376 -0.1867 2
-0.1400 0.7955 -0.8972 0.1899 21
-0.1400 1.4114 -1.5925 -0.1862 1
-0.1400 0.8047 -0.9080 0.2358 15
-0.1400 2.2834 -2.5773 -0.1805 12
-0.1400 0.7933 -0.8957 0.2762 28
-0.1400 2.2614 -2.5543 -0.0595 25
-0.1400 0.7810 -0.8825 0.3158 25
-0.1400 0.5063 -0.5735 -0.2050 7
-0.1400 2.2680 -2.5698 0.0598 23
-0.1400 0.6433 -0.7292 -0.2245 2
-0.1400 1.8693 -2.1196 0.1481 18
-0.1400 0.6505 -0.7378 -0.1912 2
-0.1400 1.8723 -2.1237 0.2477 22
-0.1400 0.7601 -0.8625 -0.1821 2
-0.1400 0.8005 -0.9086 0.1487 26
-0.1400 1.0076 -1.1441 -0.1872 2
-0.1400 0.7897 -0.8970 0.1893 25
-0.1400 1.4032 -1.5944 -0.1858 1
-0.1400 0.7638 -0.8682 0.2248 7
-0.1400 2.2700 -2.5811 -0.1801 12
-0.1400 0.7889 -0.8970 0.2758 13
-0.1400 2.2485 -2.5576 -0.0594 29
-0.1400 0.7817 -0.8895 0.3173 27
-0.1400 0.5042 -0.5753 -0.2050 7
-0.1400 2.2480 -2.5661 0.0595 23
-0.1400 0.6407 -0.7316 -0.2245 2
-0.1400 1.8694 -2.1354 0.1487 17
-0.1400 0.6788 -0.7756 -0.2003 2
-0.1400 1.8750 -2.1425 0.2491 22
-0.1400 0.7648 -0.8742 -0.1840 2
-0.1400 0.7919 -0.9055 0.1477 23
-0.1400 0.9982 -1.1418 -0.1862 2
-0.1400 0.7851 -0.8984 0.1890 28
-0.1400 1.4026 -1.6055 -0.1865 1
-0.1400 0.7645 -0.8754 0.2259 16
-0.1400 2.2395 -2.5653 -0.1785 14
-0.1400 0.7894 -0.9043 0.2771 6
-0.1400 2.2339 -2.5598 -0.0593 29
-0.1400 0.7734 -0.8866 0.3152 30
-0.1400 2.2360 -2.5713 0.0595 23
-0.1400 0.6201 -0.7133 -0.2182 3
-0.1400 1.8629 -2.1438 0.1488 15
-0.1400 0.6606 -0.7602 -0.1958 2
-0.1400 1.8802 -2.1644 0.2508 21
-0.1400 0.7590 -0.8740 -0.1833 2
-0.1400 0.7795 -0.8979 0.1460 25
-0.1400 1.0018 -1.1545 -0.1877 2
-0.1400 0.7831 -0.9028 0.1893 30
-0.1400 1.3943 -1.6074 -0.1862 1
-0.1400 0.7794 -0.8989 0.2313 22
-0.1400 2.2253 -2.5671 -0.1780 15
-0.1400 0.7657 -0.8836 0.2699 21
-0.1400 2.2219 -2.5650 -0.0592 28
-0.1400 0.7701 -0.8894 0.3152 27
-0.1400 2.2191 -2.5700 0.0593 24
-0.1400 0.6303 -0.7302 -0.2227 3
-0.1400 1.8671 -2.1639 0.1498 4
-0.1400 0.6580 -0.7625 -0.1958 2
-0.1400 1.8765 -2.1755 0.2514 22
-0.1400 0.7456 -0.8647 -0.1808 2
-0.1400 0.7763 -0.9007 0.1460 24
-0.1400 0.9926 -1.1519 -0.1867 2
-0.1400 0.7748 -0.8995 0.1880 28
-0.1400 1.3861 -1.6092 -0.1858 1
-0.1400 0.7699 -0.8941 0.2294 22
-0.1400 2.2098 -2.5673 -0.1775 17
-0.1400 0.7728 -0.8981 0.2735 29
-0.1400 2.1959 -2.5530 -0.0588 30
-0.1400 0.7733 -0.8994 0.3178 24
-0.1400 2.2062 -2.5732 0.0592 26
-0.1400 0.6151 -0.7176 -0.2182 3
-0.1400 1.8830 -2.1977 0.1517 17
-0.1400 0.6604 -0.7708 -0.1973 2
-0.1400 1.8728 -2.1866 0.2519 19
-0.1400 0.7580 -0.8853 -0.1846 2
-0.1400 0.7758 -0.9064 0.1465 20
-0.1400 0.9860 -1.1524 -0.1862 2
-0.1400 0.7665 -0.8962 0.1868 28
-0.1400 1.3908 -1.6262 -0.1872 1
-0.1400 0.7782 -0.9102 0.2328 28
-0.1400 2.1969 -2.5704 -0.1772 17
-0.1400 0.7532 -0.8816 0.2677 21
-0.1400 2.1844 -2.5576 -0.0587 27
-0.1400 0.7564 -0.8859 0.3121 18
-0.1400 2.1804 -2.5610 0.0587 21
-0.1400 0.6403 -0.7524 -0.2281 2
-0.1400 1.8727 -2.2012 0.1515 25
-0.1400 0.6628 -0.7791 -0.1988 2
-0.1400 1.8716 -2.2007 0.2528 5
-0.1400 0.7447 -0.8759 -0.1821 2
-0.1400 0.7726 -0.9091 0.1465 22
-0.1400 0.9896 -1.1649 -0.1877 2
-0.1400 0.7634 -0.8989 0.1868 28
-0.1400 1.3826 -1.6280 -0.1869 1
-0.1400 0.7649 -0.9010 0.2297 30
-0.1400 2.1763 -2.5644 -0.1763 18
-0.1400 0.7665 -0.9035 0.2735 27
-0.1400 2.1677 -2.5561 -0.0585 27
-0.1400 0.7458 -0.8797 0.3090 11
-0.1400 2.1689 -2.5656 0.0586 23
-0.1400 0.5673 -0.6713 -0.2029 5
-0.1400 1.8783 -2.2227 0.1525 21
-0.1400 0.6499 -0.7694 -0.1958 2
-0.1400 1.8755 -2.2209 0.2543 15
-0.1400 0.7416 -0.8785 -0.1821 2
-0.1400 0.7566 -0.8966 0.1440 22
-0.1400 0.9728 -1.1532 -0.1852 2
-0.1400 0.7655 -0.9074 0.1880 28
-0.1400 1.3769 -1.6328 -0.1869 1
-0.1400 0.7592 -0.9006 0.2290 31
-0.1400 2.1570 -2.5597 -0.1754 18
-0.1400 0.7583 -0.9002 0.2717 32
-0.1400 2.1592 -2.5632 -0.0585 27
-0.1400 0.7304 -0.8674 0.3039 9
-0.1400 0.4919 -0.5859 -0.2050 7
-0.1400 2.1539 -2.5651 0.0585 26
-0.1400 0.5701 -0.6791 -0.2047 4
-0.1400 1.8615 -2.2185 0.1518 18
-0.1400 0.6397 -0.7626 -0.1935 2
-0.1400 1.8767 -2.2382 0.2555 23
-0.1400 0.7514 -0.8961 -0.1852 2
-0.1400 0.7562 -0.9022 0.1445 22
-0.1400 0.9638 -1.1503 -0.1843 2
-0.1400 0.7534 -0.8995 0.1858 28
-0.1400 1.3763 -1.6437 -0.1876 1
-0.1400 0.7613 -0.9092 0.2305 30
-0.1400 2.1511 -2.5700 -0.1756 18
-0.1400 0.7478 -0.8938 0.2690 31
-0.1400 2.1413 -2.5600 -0.0583 23
-0.1400 0.7088 -0.8477 0.2961 15
-0.1400 0.4900 -0.5875 -0.2050 7
-0.1400 2.1424 -2.5695 0.0584 22
-0.1400 0.5901 -0.7081 -0.2128 4
-0.1400 1.8606 -2.2323 0.1523 19
-0.1400 0.6447 -0.7738 -0.1958 2
-0.1400 1.8782 -2.2551 0.2568 20
-0.1400 0.7204 -0.8653 -0.1783 2
-0.1400 0.7530 -0.9048 0.1445 21
-0.1400 0.9751 -1.1720 -0.1872 2
-0.1400 0.7467 -0.8975 0.1849 27
-0.1400 1.3759 -1.6544 -0.1883 1
-0.1400 0.7581 -0.9118 0.2305 29
-0.1400 2.1319 -2.5652 -0.1748 19
-0.1400 0.7435 -0.8949 0.2686 33
-0.1400 2.1226 -2.5548 -0.0580 23
-0.1400 0.7097 -0.8545 0.2976 17
-0.1400 0.4879 -0.5892 -0.2050 7
-0.1400 2.1262 -2.5674 0.0582 21
-0.1400 0.6027 -0.7280 -0.2182 3
-0.1400 1.8693 -2.2588 0.1537 18
-0.1400 0.6520 -0.7881 -0.1988 2
-0.1400 1.8716 -2.2632 0.2569 18
-0.1400 0.7402 -0.8951 -0.1840 2
-0.1400 0.7564 -0.9149 0.1458 21
-0.1400 0.9788 -1.1844 -0.1887 2
-0.1400 0.7398 -0.8955 0.1840 27
-0.1400 1.3575 -1.6438 -0.1865 1
-0.1400 0.7501 -0.9083 0.2290 29
-0.1400 2.1272 -2.5768 -0.1751 20
-0.1400 0.7392 -0.8958 0.2681 33
-0.1400 2.1073 -2.5545 -0.0578 27
-0.1400 0.7227 -0.8764 0.3044 20
-0.1400 0.4860 -0.5908 -0.2050 7
-0.1400 2.1134 -2.5702 0.0581 23
-0.1400 0.6175 -0.7512 -0.2245 2
-0.1400 1.8690 -2.2746 0.1543 18
-0.1400 0.6494 -0.7903 -0.1988 2
-0.1400 1.8717 -2.2786 0.2580 20
-0.1400 0.7170 -0.8732 -0.1790 2
-0.1400 0.7443 -0.9068 0.1440 16
-0.1400 0.9671 -1.1786 -0.1872 2
-0.1400 0.7391 -0.9011 0.1846 27
-0.1400 1.3470 -1.6421 -0.1858 1
-0.1400 0.7357 -0.8972 0.2255 29
-0.1400 2.1081 -2.5719 -0.1743 22
-0.1400 0.7361 -0.8984 0.2681 33
-0.1400 2.0971 -2.5603 -0.0578 24
-0.1400 0.7209 -0.8804 0.3049 22
-0.1400 2.0918 -2.5620 0.0577 23
-0.1400 0.6149 -0.7534 -0.2245 2
-0.1400 1.8724 -2.2950 0.1552 17
-0.1400 0.6292 -0.7712 -0.1935 2
-0.1400 1.8750 -2.2990 0.2595 19
-0.1400 0.7215 -0.8849 -0.1808 2
-0.1400 0.7374 -0.9048 0.1433 13
-0.1400 0.9705 -1.1912 -0.1887 2
-0.1400 0.7372 -0.9052 0.1849 25
-0.1400 1.3513 -1.6592 -0.1872 1
-0.1400 0.7350 -0.9028 0.2263 30
-0.1400 2.0865 -2.5637 -0.1732 29
-0.1400 0.7293 -0.8964 0.2668 30
-0.1400 2.0869 -2.5660 -0.0577 25
-0.1400 0.7239 -0.8904 0.3075 25
-0.1400 0.4819 -0.5942 -0.2050 7
-0.1400 2.0790 -2.5647 0.0576 22
-0.1400 0.5779 -0.7131 -0.2119 4
-0.1400 1.8694 -2.3077 0.1556 18
-0.1400 0.6438 -0.7948 -0.1988 2
-0.1400 1.8783 -2.3195 0.2611 19
-0.1400 0.7234 -0.8936 -0.1821 2
-0.1400 0.7268 -0.8981 0.1419 9
-0.1400 0.9613 -1.1884 -0.1877 2
-0.1400 0.7316 -0.9047 0.1843 25
-0.1400 1.3427 -1.6610 -0.1869 1
-0.1400 0.7306 -0.9039 0.2259 31
-0.1400 2.0700 -2.5617 -0.1726 30
-0.1400 0.7139 -0.8838 0.2623 30
-0.1400 2.0691 -2.5624 -0.0575 24
-0.1400 0.7292 -0.9034 0.3111 29
-0.1400 2.0701 -2.5719 0.0576 22
-0.1400 0.5754 -0.7151 -0.2119 4
-0.1400 1.8714 -2.3267 0.1565 19
-0.1400 0.6163 -0.7665 -0.1912 2
-0.1400 1.8847 -2.3450 0.2632 21
-0.1400 0.7300 -0.9086 -0.1846 2
-0.1400 0.7261 -0.9037 0.1423 9
-0.1400 0.9522 -1.1855 -0.1867 2
-0.1400 0.7148 -0.8903 0.1808 29
-0.1400 1.3493 -1.6812 -0.1886 1
-0.1400 0.7310 -0.9111 0.2271 32
-0.1400 2.0581 -2.5661 -0.1724 32
-0.1400 0.7204 -0.8986 0.2659 33
-0.1400 2.0539 -2.5618 -0.0573 27
-0.1400 0.7164 -0.8939 0.3070 27
-0.1400 2.0581 -2.5763 0.0576 22
-0.1400 0.5728 -0.7172 -0.2119 4
-0.1400 1.8682 -2.3395 0.1569 18
-0.1400 0.6430 -0.8055 -0.2003 2
-0.1400 1.8691 -2.3422 0.2622 20
-0.1400 0.7317 -0.9173 -0.1858 2
-0.1400 0.7215 -0.9048 0.1421 9
-0.1400 0.9530 -1.1951 -0.1877 2
-0.1400 0.7117 -0.8928 0.1808 29
-0.1400 1.3236 -1.6610 -0.1858 1
-0.1400 0.7254 -0.9106 0.2263 32
-0.1400 2.0429 -2.5655 -0.1719 33
-0.1400 0.7077 -0.8888 0.2623 27
-0.1400 2.0387 -2.5612 -0.0571 28
-0.1400 0.7085 -0.8904 0.3049 29
-0.1400 2.0359 -2.5659 0.0572 24
-0.1400 0.5873 -0.7405 -0.2182 3
-0.1400 1.8729 -2.3613 0.1579 17
-0.1400 0.6208 -0.7830 -0.1942 2
-0.1400 1.8687 -2.3577 0.2632 20
-0.1400 0.7140 -0.9011 -0.1821 2
-0.1400 0.7161 -0.9041 0.1416 9
-0.1400 0.9490 -1.1982 -0.1877 2
-0.1400 0.7173 -0.9060 0.1830 25
-0.1400 1.3329 -1.6841 -0.1879 1
-0.1400 0.7150 -0.9038 0.2240 27
-0.1400 2.0319 -2.5691 -0.1717 33
-0.1400 0.7011 -0.8865 0.2609 20
-0.1400 2.0265 -2.5632 -0.0570 27
-0.1400 0.7079 -0.8958 0.3059 29
-0.1400 2.0224 -2.5664 0.0570 24
-0.1400 0.5680 -0.7210 -0.2119 4
-0.1400 1.8745 -2.3804 0.1588 17
-0.1400 0.6328 -0.8036 -0.1988 2
